# .PCD v0.7 - Point Cloud Data file format
VERSION 0.7
FIELDS x y z
SIZE 4 4 4
TYPE F F F
COUNT 1 1 1
WIDTH 204
HEIGHT 1
VIEWPOINT 0 0 0 1 0 0 0
POINTS 204
DATA ascii
-8.3588266 -14.858909 -88.233772
-7.0871124 -15.430043 -88.152168
-5.0215521 -15.521378 -88.167496
-3.0433683 -15.521378 -88.167465
-1.0181919 -15.519124 -88.167419
1.0333735 -15.523666 -88.167595
3.0433512 -15.521378 -88.167496
5.0215282 -15.521384 -88.167488
7.0870843 -15.43004 -88.152214
8.3588085 -14.858899 -88.233788
-8.3653297 -12.985086 -88.194283
-7.8979597 -13.061969 -88.003799
7.8979321 -13.062008 -88.003799
8.3653097 -12.985064 -88.194313
-8.372551 -10.960028 -88.19957
-7.8979592 -11.011516 -88.003799
7.8979321 -11.011586 -88.003799
8.3725309 -10.960002 -88.19957
-8.37255 -8.9811335 -88.19957
-7.8979597 -8.9610615 -88.003799
7.8979321 -8.9611702 -88.003799
8.372529 -8.9810982 -88.199577
-8.372551 -7.0022473 -88.199585
-7.8979597 -6.9865499 -88.003799
7.8979321 -6.9866929 -88.003799
8.37253 -7.0022035 -88.19957
-8.372551 -5.0233583 -88.19957
-7.8979597 -5.0120506 -88.003799
7.8979321 -5.0122156 -88.003799
8.3725319 -5.0233088 -88.199562
-8.3725529 -3.0444744 -88.199585
-7.8979597 -3.0375731 -88.003799
7.8979321 -3.0377383 -88.003799
8.37253 -3.0444152 -88.199562
-8.3749399 -1.0038211 -88.201469
-7.8979597 -1.063096 -88.003799
7.8979321 -0.98731965 -88.003799
8.3700333 -1.0493788 -88.197609
-8.3700542 1.0493807 -88.197594
-7.8979592 0.98732269 -88.003799
7.8979321 1.0630997 -88.003799
8.3749189 1.0038234 -88.201485
-8.372551 3.0444157 -88.199577
-7.8979597 3.0377419 -88.003799
7.8979321 3.0375776 -88.003799
8.37253 3.044476 -88.199577
-8.372551 5.0233111 -88.199577
-7.8979597 5.012219 -88.003799
7.8979321 5.0120544 -88.003799
8.372529 5.0233598 -88.19957
-8.372551 7.0022049 -88.19957
-7.8979597 6.9866962 -88.003799
7.8979321 6.9865537 -88.003799
8.37253 7.0022497 -88.19957
-8.372551 8.981101 -88.19957
-7.8979597 8.961174 -88.003799
7.8979321 8.9610653 -88.003799
8.37253 8.9811363 -88.199577
-8.372551 10.96 -88.19957
-7.8979592 11.011585 -88.003799
7.8979321 11.011516 -88.003799
8.3725309 10.960028 -88.199562
-8.3653307 12.985065 -88.19429
-7.8979597 13.062008 -88.003799
7.8979321 13.06197 -88.003799
8.3653097 12.985086 -88.194305
-8.3588333 14.858899 -88.233788
-7.087111 15.430038 -88.152176
-5.0215526 15.521378 -88.167458
-3.043375 15.521379 -88.167488
-1.0333995 15.523664 -88.167664
1.0181657 15.519122 -88.167366
3.0433424 15.521374 -88.167526
5.0215268 15.521384 -88.167458
7.0870872 15.430038 -88.152153
8.3588066 14.858911 -88.233788
-6.9102859 -14.580144 -88
-5.0118575 -14.580157 -88
-3.0374942 -14.580136 -88
-0.98719013 -14.580148 -88
1.0631106 -14.580155 -88
3.0374763 -14.580143 -88
5.011838 -14.580139 -88
6.9102688 -14.580147 -88
-6.9102855 -13.061378 -88
-5.0118589 -13.061366 -88
-3.037493 -13.061368 -88
-0.98718995 -13.061345 -88
1.0631105 -13.061357 -88
3.0374761 -13.06136 -88
5.0118394 -13.061355 -88
6.9102688 -13.061365 -88
-6.9102859 -11.011029 -88
-5.0118594 -11.011034 -88
-3.037493 -11.01104 -88
-0.98718983 -11.011039 -88
1.0631106 -11.011031 -88
3.0374761 -11.011033 -88
5.0118394 -11.011029 -88
6.9102688 -11.011033 -88
-6.9102864 -8.9607029 -88
-5.0118594 -8.9607058 -88
-3.0374932 -8.9606962 -88
-0.98719001 -8.9606915 -88
1.0631105 -8.9607 -88
3.0374761 -8.9606943 -88
5.0118389 -8.9607038 -88
6.9102683 -8.9606972 -88
-6.9102864 -6.986311 -88
-5.0118594 -6.9863081 -88
-3.0374932 -6.9863114 -88
-0.98718983 -6.9863143 -88
1.0631106 -6.9863129 -88
3.0374761 -6.9863124 -88
5.0118394 -6.9863167 -88
6.9102688 -6.9863124 -88
-6.9102864 -5.01192 -88
-5.0118599 -5.0119181 -88
-3.037493 -5.0119214 -88
-0.98718977 -5.01192 -88
1.0631105 -5.011919 -88
3.0374761 -5.0119152 -88
5.0118394 -5.0119233 -88
6.9102683 -5.0119205 -88
-6.9102869 -3.0375247 -88
-5.0118599 -3.0375273 -88
-3.0374937 -3.0375259 -88
-0.98719001 -3.0375266 -88
1.0631105 -3.0375276 -88
3.0374761 -3.0375247 -88
5.0118394 -3.0375247 -88
6.9102683 -3.0375276 -88
-6.9102864 -1.0631322 -88
-5.0118589 -1.0631313 -88
-3.037493 -1.0631322 -88
-0.98719025 -1.0631317 -88
1.0631102 -1.0631332 -88
3.0374761 -1.0631329 -88
5.0118389 -1.0631318 -88
6.9102688 -1.0631317 -88
-6.9102864 0.98719782 -88
-5.0118599 0.98719829 -88
-3.037493 0.98719758 -88
-0.98719031 0.98719752 -88
1.0631104 0.98719841 -88
3.0374768 0.98719776 -88
5.0118384 0.98719817 -88
6.9102688 0.98719728 -88
-6.9102864 3.0375285 -88
-5.0118599 3.0375316 -88
-3.037493 3.0375297 -88
-0.9871906 3.0375316 -88
1.06311 3.037529 -88
3.0374761 3.0375295 -88
5.0118399 3.0375302 -88
6.9102688 3.0375302 -88
-6.9102869 5.0119205 -88
-5.0118599 5.0119224 -88
-3.037493 5.0119195 -88
-0.98719043 5.0119238 -88
1.0631098 5.0119214 -88
3.0374756 5.0119209 -88
5.0118394 5.011919 -88
6.9102697 5.0119243 -88
-6.9102869 6.9863143 -88
-5.0118599 6.9863143 -88
-3.037493 6.986311 -88
-0.98719043 6.9863133 -88
1.06311 6.9863095 -88
3.0374753 6.9863143 -88
5.0118399 6.9863157 -88
6.9102688 6.9863186 -88
-6.9102855 8.9607086 -88
-5.0118594 8.9606981 -88
-3.037493 8.9607029 -88
-0.98719043 8.9606981 -88
1.0631099 8.9607038 -88
3.0374756 8.9607029 -88
5.0118389 8.9607096 -88
6.9102683 8.9607067 -88
-6.9102859 11.011035 -88
-5.0118594 11.011033 -88
-3.037493 11.011036 -88
-0.98719037 11.011033 -88
1.0631098 11.011034 -88
3.0374751 11.01104 -88
5.0118394 11.011026 -88
6.9102688 11.011038 -88
-6.9102864 13.061361 -88
-5.0118594 13.061377 -88
-3.037493 13.061369 -88
-0.98719019 13.061375 -88
1.06311 13.061358 -88
3.0374756 13.061363 -88
5.0118394 13.061371 -88
6.9102659 13.06137 -88
-6.9102859 14.580141 -88
-5.0118599 14.58016 -88
-3.0374944 14.580137 -88
-0.98719084 14.580148 -88
1.06311 14.580146 -88
3.0374753 14.580143 -88
5.011838 14.580155 -88
6.9102683 14.580144 -88
