ply
format ascii 1.0
element vertex 1752
property float32 x
property float32 y
property float32 z
element face 0
property list uint8 int32 vertex_indices
end_header
-5.09138 -6.98231 -84.2842
-5.23684 -6.9823 -84.2842
-5.3823 -6.9823 -84.2842
-5.52777 -6.9823 -84.2842
-5.67325 -6.9823 -84.2842
-5.8187 -6.9823 -84.2842
-5.96416 -6.9823 -84.2842
-6.10963 -6.98229 -84.2842
-6.2551 -6.98228 -84.2841
-6.40057 -6.98229 -84.2842
-6.54601 -6.98228 -84.2841
-6.6915 -6.98228 -84.2842
-6.83696 -6.98228 -84.2841
-6.98242 -6.98228 -84.2841
-7.12788 -6.98227 -84.2841
-7.27335 -6.98227 -84.2841
-7.41882 -6.98227 -84.2841
-7.56428 -6.98226 -84.2841
-7.70975 -6.98226 -84.2841
-7.85521 -6.98226 -84.2841
-8.00068 -6.98227 -84.2841
-8.14613 -6.98226 -84.2841
-8.29161 -6.98226 -84.2841
-8.43706 -6.98225 -84.2841
-8.58252 -6.98225 -84.2841
-8.728 -6.98225 -84.2841
-8.87345 -6.98225 -84.2841
-9.01892 -6.98225 -84.2841
-9.16438 -6.98224 -84.2841
-9.30985 -6.98224 -84.2841
-9.45596 -6.9826 -84.29
-9.60269 -6.9836 -84.3019
-9.75179 -6.98629 -84.3326
-9.90163 -6.9893 -84.3684
-10.0533 -6.99357 -84.4193
-10.2059 -6.99841 -84.4763
-10.36 -7.00395 -84.5444
-10.5153 -7.01028 -84.621
-10.6719 -7.01734 -84.7061
-10.8305 -7.02524 -84.8029
-10.9905 -7.03384 -84.9062
-11.1527 -7.04388 -85.026
-11.3161 -7.05447 -85.1527
-11.4828 -7.06641 -85.2983
-11.6523 -7.07987 -85.4619
-11.8252 -7.0951 -85.6466
-12.0032 -7.11291 -85.8623
-12.185 -7.13259 -86.0997
-12.3678 -7.15237 -86.3384
-12.5516 -7.17225 -86.5785
-12.7365 -7.19225 -86.8199
-12.9224 -7.21236 -87.0627
-13.1093 -7.23259 -87.3068
-13.2972 -7.25292 -87.5522
-13.4863 -7.27338 -87.7991
-13.6764 -7.29395 -88.0474
-13.8675 -7.31464 -88.297
-14.0609 -7.33603 -88.5552
14.2519 -7.69948 -94.9175
14.0214 -7.66292 -94.4663
13.8196 -7.64151 -94.2024
13.619 -7.62024 -93.9399
13.4195 -7.59907 -93.6789
13.2211 -7.57802 -93.4194
13.0238 -7.5571 -93.1613
12.8275 -7.53629 -92.9046
12.6324 -7.51558 -92.6493
12.4383 -7.495 -92.3954
12.2453 -7.47453 -92.1429
12.0533 -7.45416 -91.8918
11.8624 -7.4339 -91.642
11.6725 -7.41374 -91.3937
11.4837 -7.3937 -91.1466
11.2958 -7.37376 -90.9009
11.109 -7.35394 -90.6565
10.9231 -7.33421 -90.4134
10.7383 -7.31459 -90.1716
10.5544 -7.29508 -89.9312
10.3716 -7.27568 -89.692
10.1897 -7.25637 -89.454
10.0087 -7.23716 -89.2173
9.82875 -7.21806 -88.9819
9.6497 -7.19906 -88.7477
9.47161 -7.18015 -88.5147
9.29446 -7.16135 -88.283
9.11822 -7.14265 -88.0524
8.94289 -7.12404 -87.8231
8.76849 -7.10553 -87.595
8.59499 -7.08711 -87.368
8.42236 -7.0688 -87.1422
8.25064 -7.05057 -86.9176
8.0798 -7.03243 -86.6941
7.90985 -7.0144 -86.4718
7.74075 -6.99645 -86.2506
7.57252 -6.9786 -86.0306
7.40514 -6.96083 -85.8116
7.2392 -6.94373 -85.6006
7.07564 -6.9281 -85.408
6.91492 -6.91483 -85.2449
6.75601 -6.90289 -85.0984
6.59874 -6.89175 -84.9617
6.44322 -6.88216 -84.8446
6.28825 -6.87315 -84.7325
6.13483 -6.86529 -84.6335
5.98246 -6.85785 -84.5417
5.83078 -6.85105 -84.4593
5.67989 -6.84499 -84.3852
5.52989 -6.83954 -84.3189
5.3808 -6.835 -84.2628
5.23246 -6.83107 -84.2132
5.08502 -6.82801 -84.1768
4.93789 -6.8255 -84.1448
4.79183 -6.82476 -84.1332
4.64625 -6.82409 -84.1259
4.50105 -6.82409 -84.126
4.35585 -6.82408 -84.1259
4.21065 -6.82409 -84.126
4.06546 -6.82409 -84.126
3.92025 -6.82409 -84.126
3.77507 -6.82408 -84.1259
3.62987 -6.82408 -84.1259
3.48467 -6.82408 -84.1259
3.33946 -6.82408 -84.1259
3.19427 -6.82408 -84.1259
3.04906 -6.82408 -84.126
2.90388 -6.82408 -84.1259
2.75868 -6.82407 -84.1259
2.61349 -6.82408 -84.1259
2.46829 -6.82408 -84.1259
2.32308 -6.82408 -84.1259
2.17789 -6.82408 -84.1259
2.0327 -6.82408 -84.1259
1.88749 -6.82408 -84.1259
1.74229 -6.82408 -84.1259
1.59711 -6.82408 -84.126
1.4519 -6.82408 -84.1259
1.3067 -6.82408 -84.1259
1.16151 -6.82408 -84.1259
1.01631 -6.82407 -84.1259
0.871109 -6.82408 -84.1259
0.725914 -6.82408 -84.1259
0.580719 -6.82407 -84.1259
0.435524 -6.82408 -84.1259
0.290321 -6.82407 -84.1259
0.145134 -6.82407 -84.1259
-6.86646e-005 -6.82407 -84.1259
-0.145271 -6.82407 -84.1259
-0.290459 -6.82407 -84.1259
-0.435661 -6.82407 -84.1259
-0.580864 -6.82407 -84.1259
-0.726044 -6.82407 -84.1259
-0.871254 -6.82407 -84.1259
-1.01645 -6.82407 -84.1259
-1.16164 -6.82407 -84.1259
-1.30684 -6.82407 -84.1259
-1.45203 -6.82407 -84.1259
-1.59722 -6.82406 -84.1259
-1.74242 -6.82406 -84.1259
-1.8876 -6.82406 -84.1259
-2.03279 -6.82405 -84.1259
-2.17799 -6.82406 -84.1259
-2.32318 -6.82405 -84.1259
-2.46837 -6.82405 -84.1259
-2.61356 -6.82405 -84.1259
-2.75874 -6.82404 -84.1259
-2.90395 -6.82404 -84.1259
-3.04914 -6.82404 -84.1259
-3.19433 -6.82404 -84.1259
-3.33952 -6.82404 -84.1259
-3.48471 -6.82403 -84.1259
-3.6299 -6.82403 -84.1259
-3.77509 -6.82403 -84.1259
-3.92029 -6.82402 -84.1259
-4.06548 -6.82402 -84.1259
-4.21066 -6.82402 -84.1259
-4.35586 -6.82402 -84.1259
-4.50105 -6.82402 -84.1259
-4.64625 -6.82401 -84.1259
-4.79144 -6.82401 -84.1259
-4.93661 -6.82401 -84.1259
-5.0818 -6.82401 -84.1259
-5.22701 -6.824 -84.1259
-5.37221 -6.824 -84.1259
-5.5174 -6.82401 -84.1259
-5.66258 -6.82399 -84.1259
-5.80778 -6.824 -84.1259
-5.95296 -6.82399 -84.1259
-6.09816 -6.82399 -84.1259
-6.24335 -6.82399 -84.1259
-6.38853 -6.82399 -84.1259
-6.53374 -6.82398 -84.1259
-6.67892 -6.82398 -84.1259
-6.82412 -6.82399 -84.1259
-6.96931 -6.82397 -84.1258
-7.11449 -6.82397 -84.1258
-7.25968 -6.82397 -84.1258
-7.40488 -6.82397 -84.1258
-7.55006 -6.82396 -84.1258
-7.69526 -6.82397 -84.1258
-7.84045 -6.82396 -84.1258
-7.98565 -6.82396 -84.1258
-8.13083 -6.82396 -84.1258
-8.27602 -6.82395 -84.1258
-8.42122 -6.82395 -84.1258
-8.56641 -6.82394 -84.1258
-8.7116 -6.82395 -84.1258
-8.8568 -6.82394 -84.1258
-9.00198 -6.82394 -84.1258
-9.14718 -6.82394 -84.1258
-9.29352 -6.82469 -84.1367
-9.44075 -6.82627 -84.1552
-9.58978 -6.82903 -84.1878
-9.74012 -6.8325 -84.2309
-9.89142 -6.83677 -84.2817
-10.0445 -6.84197 -84.3455
-10.1982 -6.84734 -84.4133
-10.3539 -6.85416 -84.4965
-10.5103 -6.86109 -84.5823
-10.6694 -6.86933 -84.685
-10.8296 -6.87816 -84.7931
-10.9915 -6.88816 -84.915
-11.1558 -6.89917 -85.0503
-11.3222 -6.91088 -85.1967
-11.4923 -6.92485 -85.3694
-11.6667 -6.94091 -85.5682
-11.8455 -6.95911 -85.793
-12.0267 -6.97834 -86.03
-12.2089 -6.99768 -86.2684
-12.3921 -7.01712 -86.508
-12.5764 -7.03666 -86.749
-12.7616 -7.05632 -86.9914
-12.9479 -7.0761 -87.2351
-13.1353 -7.09598 -87.4802
-13.3237 -7.11597 -87.7267
-13.5132 -7.13608 -87.9745
-13.7038 -7.1563 -88.2238
-13.8954 -7.17665 -88.4745
-14.0906 -7.19838 -88.7419
14.0497 -7.51501 -94.6576
13.847 -7.49373 -94.3889
13.6459 -7.47282 -94.1254
13.4459 -7.45203 -93.8633
13.247 -7.43135 -93.6028
13.0492 -7.41078 -93.3436
12.8526 -7.39033 -93.0859
12.657 -7.37 -92.8297
12.4624 -7.34977 -92.5748
12.269 -7.32965 -92.3213
12.0766 -7.30964 -92.0692
11.8852 -7.28975 -91.8185
11.6949 -7.26995 -91.5692
11.5056 -7.25025 -91.3212
11.3174 -7.23066 -91.0745
11.1301 -7.21119 -90.8292
10.9439 -7.19181 -90.5852
10.7586 -7.17253 -90.3425
10.5744 -7.15336 -90.1011
10.3911 -7.1343 -89.861
10.2088 -7.11533 -89.6221
10.0275 -7.09646 -89.3846
9.84712 -7.0777 -89.1482
9.66771 -7.05903 -88.9132
9.48923 -7.04046 -88.6793
9.31169 -7.02199 -88.4467
9.13508 -7.00362 -88.2153
8.9594 -6.98534 -87.9852
8.78461 -6.96715 -87.7562
8.61075 -6.94906 -87.5284
8.43778 -6.93106 -87.3018
8.26571 -6.91316 -87.0763
8.09452 -6.89535 -86.852
7.92422 -6.87763 -86.6289
7.75478 -6.86 -86.4069
7.58621 -6.84246 -86.1861
7.4185 -6.82502 -85.9663
7.25165 -6.80766 -85.7477
7.08563 -6.79038 -85.5302
6.92201 -6.77468 -85.3322
6.76104 -6.76088 -85.1584
6.60162 -6.7483 -85.0011
6.44457 -6.73738 -84.8639
6.28897 -6.72736 -84.7388
6.13409 -6.71806 -84.6221
5.98067 -6.71016 -84.5201
5.82823 -6.70247 -84.4218
5.67702 -6.69579 -84.3391
5.52589 -6.68924 -84.2578
5.37624 -6.68397 -84.1917
5.22697 -6.67883 -84.1281
5.07887 -6.675 -84.0786
4.93134 -6.6715 -84.0341
4.78453 -6.66888 -84.0022
4.63829 -6.66739 -83.981
4.49267 -6.66648 -83.9693
4.34769 -6.66638 -83.9682
4.20277 -6.66637 -83.9682
4.05783 -6.66637 -83.9682
3.91291 -6.66637 -83.9682
3.76797 -6.66637 -83.9682
3.62305 -6.66637 -83.9682
3.47814 -6.66637 -83.9682
3.33321 -6.66637 -83.9682
3.18829 -6.66637 -83.9682
3.04336 -6.66637 -83.9682
2.89843 -6.66637 -83.9682
2.75351 -6.66637 -83.9682
2.60858 -6.66637 -83.9682
2.46365 -6.66637 -83.9682
2.31874 -6.66637 -83.9682
2.17381 -6.66637 -83.9682
2.02889 -6.66637 -83.9682
1.88396 -6.66637 -83.9682
1.73904 -6.66637 -83.9682
1.5941 -6.66637 -83.9682
1.44918 -6.66637 -83.9682
1.30426 -6.66637 -83.9682
1.15933 -6.66637 -83.9682
1.0144 -6.66637 -83.9682
0.869484 -6.66637 -83.9682
0.724548 -6.66636 -83.9682
0.579628 -6.66637 -83.9682
0.4347 -6.66637 -83.9682
0.289787 -6.66637 -83.9682
0.144859 -6.66637 -83.9682
-6.86646e-005 -6.66637 -83.9682
-0.144989 -6.66636 -83.9682
-0.289917 -6.66636 -83.9682
-0.434845 -6.66636 -83.9682
-0.579765 -6.66636 -83.9682
-0.724701 -6.66636 -83.9682
-0.869614 -6.66636 -83.9682
-1.01454 -6.66636 -83.9682
-1.15947 -6.66636 -83.9682
-1.30438 -6.66636 -83.9682
-1.4493 -6.66636 -83.9682
-1.59423 -6.66636 -83.9682
-1.73914 -6.66636 -83.9682
-1.88406 -6.66635 -83.9682
-2.02898 -6.66635 -83.9682
-2.17391 -6.66635 -83.9682
-2.31882 -6.66634 -83.9682
-2.46375 -6.66634 -83.9682
-2.60867 -6.66635 -83.9682
-2.75358 -6.66633 -83.9682
-2.89849 -6.66633 -83.9682
-3.04342 -6.66633 -83.9682
-3.18834 -6.66632 -83.9682
-3.33326 -6.66633 -83.9682
-3.47817 -6.66633 -83.9682
-3.62311 -6.66632 -83.9682
-3.76801 -6.66632 -83.9682
-3.91293 -6.66632 -83.9682
-4.05785 -6.66631 -83.9682
-4.20278 -6.66631 -83.9682
-4.3477 -6.66631 -83.9682
-4.49261 -6.66631 -83.9682
-4.63754 -6.66631 -83.9682
-4.78246 -6.66631 -83.9682
-4.92737 -6.6663 -83.9682
-5.0723 -6.6663 -83.9682
-5.21721 -6.66629 -83.9682
-5.36213 -6.66629 -83.9682
-5.50703 -6.66629 -83.9682
-5.65196 -6.66629 -83.9682
-5.79689 -6.66629 -83.9682
-5.94181 -6.66629 -83.9682
-6.08672 -6.66628 -83.9682
-6.23164 -6.66628 -83.9682
-6.37656 -6.66628 -83.9681
-6.52148 -6.66628 -83.9681
-6.6664 -6.66628 -83.9682
-6.81132 -6.66627 -83.9681
-6.95624 -6.66627 -83.9681
-7.10116 -6.66627 -83.9681
-7.24608 -6.66626 -83.9681
-7.39099 -6.66626 -83.9681
-7.53591 -6.66626 -83.9681
-7.68084 -6.66626 -83.9681
-7.82576 -6.66626 -83.9681
-7.97067 -6.66625 -83.9681
-8.11559 -6.66625 -83.9681
-8.26051 -6.66624 -83.9681
-8.40543 -6.66624 -83.9681
-8.55035 -6.66624 -83.9681
-8.69526 -6.66624 -83.9681
-8.84019 -6.66624 -83.9681
-8.98553 -6.66647 -83.9722
-9.13165 -6.66736 -83.9839
-9.2796 -6.66964 -84.011
-9.42834 -6.67231 -84.0434
-9.57913 -6.67629 -84.0939
-9.73045 -6.68069 -84.1475
-9.88358 -6.68599 -84.215
-10.0375 -6.69172 -84.2879
-10.1931 -6.69847 -84.3724
-10.3499 -6.7057 -84.465
-10.5087 -6.71385 -84.5675
-10.6693 -6.7231 -84.6827
-10.8307 -6.73286 -84.8043
-10.9958 -6.74421 -84.9482
-11.163 -6.75654 -85.1048
-11.333 -6.77038 -85.2799
-11.5085 -6.787 -85.49
-11.688 -6.80555 -85.7238
-11.8686 -6.82433 -85.9604
-12.0502 -6.84323 -86.1984
-12.2329 -6.86223 -86.4377
-12.4165 -6.88134 -86.6783
-12.6012 -6.90054 -86.9203
-12.7869 -6.91986 -87.1636
-12.9737 -6.93929 -87.4083
-13.1615 -6.95882 -87.6543
-13.3503 -6.97847 -87.9018
-13.5403 -6.99823 -88.1506
-13.7313 -7.0181 -88.4009
-13.9234 -7.03809 -88.6526
-14.1203 -7.06014 -88.9294
14.0788 -7.36678 -94.854
13.8745 -7.34537 -94.5761
13.6729 -7.32483 -94.3115
13.4724 -7.30441 -94.0485
13.2731 -7.2841 -93.7868
13.0748 -7.2639 -93.5267
12.8777 -7.24382 -93.268
12.6817 -7.22383 -93.0107
12.4867 -7.20398 -92.7549
12.2928 -7.18422 -92.5004
12.0999 -7.16458 -92.2473
11.9081 -7.14503 -91.9956
11.7174 -7.1256 -91.7453
11.5277 -7.10625 -91.4964
11.339 -7.08702 -91.2488
11.1514 -7.06789 -91.0025
10.9647 -7.04886 -90.7576
10.7791 -7.02993 -90.514
10.5944 -7.01111 -90.2716
10.4107 -6.99239 -90.0306
10.2281 -6.97376 -89.7909
10.0463 -6.95523 -89.5524
9.86557 -6.93681 -89.3152
9.68578 -6.91848 -89.0793
9.5069 -6.90024 -88.8446
9.329 -6.8821 -88.6111
9.15201 -6.86406 -88.3788
8.97594 -6.84612 -88.1478
8.80081 -6.82825 -87.918
8.62659 -6.8105 -87.6893
8.45326 -6.79283 -87.4619
8.28083 -6.77525 -87.2356
8.10929 -6.75776 -87.0105
7.93864 -6.74036 -86.7866
7.76886 -6.72306 -86.5638
7.59995 -6.70584 -86.3421
7.4319 -6.68871 -86.1216
7.26471 -6.67166 -85.9022
7.09837 -6.6547 -85.6839
6.93287 -6.63784 -85.4667
6.76892 -6.62177 -85.2596
6.60731 -6.60718 -85.0718
6.4481 -6.59455 -84.91
6.29081 -6.58341 -84.767
6.13502 -6.57296 -84.6332
5.98073 -6.56385 -84.517
5.82707 -6.55541 -84.4072
5.6748 -6.54796 -84.309
5.52356 -6.54097 -84.2191
5.37289 -6.5345 -84.1373
5.22306 -6.52883 -84.0649
5.07399 -6.52364 -83.9991
4.92584 -6.51943 -83.9445
4.77832 -6.51571 -83.8952
4.6317 -6.51286 -83.8601
4.48531 -6.51055 -83.8293
4.33987 -6.50985 -83.8178
4.19491 -6.50926 -83.8111
4.05024 -6.50925 -83.8111
3.9056 -6.50925 -83.8111
3.76094 -6.50925 -83.8111
3.61629 -6.50925 -83.8111
3.47163 -6.50925 -83.8111
3.32698 -6.50925 -83.8111
3.18233 -6.50925 -83.8111
3.03766 -6.50925 -83.8111
2.89301 -6.50925 -83.8111
2.74836 -6.50925 -83.8111
2.60371 -6.50925 -83.8111
2.45905 -6.50925 -83.8111
2.31439 -6.50925 -83.8111
2.16974 -6.50925 -83.8111
2.02509 -6.50925 -83.8111
1.88043 -6.50925 -83.8111
1.73578 -6.50925 -83.8111
1.59113 -6.50925 -83.8111
1.44648 -6.50925 -83.8111
1.30183 -6.50925 -83.8111
1.15717 -6.50925 -83.8111
1.0125 -6.50925 -83.8111
0.867859 -6.50925 -83.8111
0.723213 -6.50925 -83.8111
0.578545 -6.50925 -83.8111
0.433891 -6.50924 -83.8111
0.289246 -6.50924 -83.8111
0.144592 -6.50925 -83.8111
-6.10352e-005 -6.50925 -83.8111
-0.144722 -6.50925 -83.8111
-0.289368 -6.50925 -83.8111
-0.434021 -6.50924 -83.8111
-0.578674 -6.50925 -83.8111
-0.723335 -6.50924 -83.8111
-0.867981 -6.50924 -83.8111
-1.01264 -6.50924 -83.8111
-1.15729 -6.50925 -83.8111
-1.30194 -6.50924 -83.8111
-1.44659 -6.50924 -83.8111
-1.59124 -6.50924 -83.8111
-1.73589 -6.50923 -83.8111
-1.88055 -6.50924 -83.8111
-2.02518 -6.50922 -83.8111
-2.16984 -6.50922 -83.8111
-2.31448 -6.50922 -83.8111
-2.45913 -6.50922 -83.8111
-2.60378 -6.50922 -83.8111
-2.74844 -6.50922 -83.8111
-2.89307 -6.50922 -83.8111
-3.03773 -6.50921 -83.8111
-3.18237 -6.5092 -83.8111
-3.32702 -6.5092 -83.8111
-3.47167 -6.5092 -83.8111
-3.61631 -6.5092 -83.8111
-3.76096 -6.5092 -83.8111
-3.90562 -6.5092 -83.8111
-4.05026 -6.5092 -83.8111
-4.19491 -6.50919 -83.8111
-4.33956 -6.50919 -83.8111
-4.48421 -6.50919 -83.8111
-4.62885 -6.50918 -83.8111
-4.7735 -6.50919 -83.8111
-4.91815 -6.50919 -83.8111
-5.06281 -6.50918 -83.8111
-5.20744 -6.50917 -83.811
-5.35209 -6.50918 -83.811
-5.49674 -6.50917 -83.811
-5.6414 -6.50917 -83.811
-5.78604 -6.50917 -83.811
-5.93068 -6.50916 -83.811
-6.07533 -6.50916 -83.811
-6.21998 -6.50916 -83.811
-6.36463 -6.50916 -83.811
-6.50928 -6.50915 -83.811
-6.65393 -6.50916 -83.811
-6.79857 -6.50915 -83.811
-6.94322 -6.50914 -83.811
-7.08787 -6.50915 -83.811
-7.23251 -6.50915 -83.811
-7.37717 -6.50914 -83.811
-7.52181 -6.50914 -83.811
-7.66647 -6.50914 -83.811
-7.81111 -6.50914 -83.811
-7.95576 -6.50913 -83.811
-8.1004 -6.50913 -83.811
-8.24505 -6.50913 -83.811
-8.3897 -6.50912 -83.811
-8.53435 -6.50912 -83.811
-8.67901 -6.50912 -83.811
-8.82456 -6.50965 -83.8199
-8.97074 -6.51089 -83.8349
-9.11901 -6.51352 -83.8672
-9.26822 -6.51661 -83.9069
-9.41866 -6.52061 -83.9573
-9.57042 -6.52538 -84.0176
-9.72317 -6.53048 -84.085
-9.8775 -6.53671 -84.1644
-10.0327 -6.54324 -84.2486
-10.1901 -6.55082 -84.348
-10.3486 -6.55891 -84.4515
-10.5093 -6.56843 -84.5726
-10.6715 -6.57858 -84.7022
-10.8363 -6.58962 -84.8463
-11.0042 -6.6025 -85.013
-11.1756 -6.61714 -85.2022
-11.3517 -6.63398 -85.4197
-11.5307 -6.65223 -85.6547
-11.7108 -6.67059 -85.891
-11.8918 -6.68903 -86.1286
-12.0739 -6.70759 -86.3674
-12.2569 -6.72625 -86.6077
-12.441 -6.74501 -86.8493
-12.6261 -6.76388 -87.0922
-12.8123 -6.78285 -87.3364
-12.9995 -6.80193 -87.5821
-13.1877 -6.82112 -87.8291
-13.377 -6.84042 -88.0776
-13.5674 -6.85983 -88.3274
-13.7589 -6.87934 -88.5787
-13.9514 -6.89898 -88.8314
-14.152 -6.92221 -89.129
14.108 -7.21793 -95.0512
13.902 -7.1964 -94.764
13.7 -7.17624 -94.4984
13.499 -7.1562 -94.2343
13.2992 -7.13626 -93.9717
13.1005 -7.11644 -93.7105
12.9029 -7.09672 -93.4508
12.7064 -7.07711 -93.1925
12.511 -7.05761 -92.9356
12.3167 -7.03822 -92.6802
12.1234 -7.01894 -92.4261
11.9312 -6.99976 -92.1735
11.74 -6.98068 -91.9222
11.5499 -6.9617 -91.6723
11.3608 -6.94282 -91.4237
11.1727 -6.92405 -91.1765
10.9856 -6.90536 -90.9306
10.7996 -6.88679 -90.6861
10.6145 -6.86832 -90.4429
10.4304 -6.84994 -90.2009
10.2474 -6.83166 -89.9603
10.0652 -6.81348 -89.7209
9.88409 -6.79539 -89.4828
9.7039 -6.7774 -89.246
9.52467 -6.75951 -89.0104
9.34637 -6.7417 -88.776
9.16899 -6.724 -88.5429
8.99258 -6.70638 -88.311
8.81707 -6.68886 -88.0804
8.64248 -6.67143 -87.8509
8.46878 -6.65408 -87.6226
8.29601 -6.63684 -87.3955
8.12411 -6.61967 -87.1696
7.95311 -6.6026 -86.9448
7.78299 -6.58561 -86.7212
7.61374 -6.56872 -86.4987
7.44535 -6.55191 -86.2774
7.27782 -6.53518 -86.0572
7.11115 -6.51854 -85.8381
6.94532 -6.50198 -85.6202
6.78033 -6.48551 -85.4033
6.61617 -6.46912 -85.1876
6.45447 -6.45439 -84.9933
6.29532 -6.44153 -84.8241
6.13755 -6.42979 -84.6704
5.98186 -6.41941 -84.5343
5.82765 -6.41003 -84.412
5.674 -6.40122 -84.2962
5.52183 -6.39385 -84.1965
5.37055 -6.38659 -84.0995
5.22038 -6.38027 -84.018
5.07036 -6.37415 -83.9385
4.92162 -6.36914 -83.8729
4.77334 -6.36436 -83.8108
4.62605 -6.36073 -83.7616
4.47935 -6.35745 -83.7185
4.33327 -6.35497 -83.6868
4.18771 -6.35364 -83.6668
4.04272 -6.35278 -83.6552
3.8983 -6.35272 -83.6546
3.75392 -6.35272 -83.6546
3.60954 -6.35272 -83.6546
3.46515 -6.35272 -83.6546
3.32077 -6.35272 -83.6546
3.17638 -6.35271 -83.6546
3.03201 -6.35272 -83.6546
2.88761 -6.35272 -83.6546
2.74323 -6.35272 -83.6546
2.59883 -6.35272 -83.6546
2.45446 -6.35272 -83.6546
2.31008 -6.35271 -83.6546
2.1657 -6.35272 -83.6546
2.02132 -6.35272 -83.6546
1.87692 -6.35272 -83.6546
1.73254 -6.35272 -83.6546
1.58815 -6.35272 -83.6546
1.44378 -6.35271 -83.6546
1.29939 -6.35271 -83.6546
1.15501 -6.35271 -83.6546
1.01062 -6.35271 -83.6546
0.866241 -6.35272 -83.6546
0.721848 -6.35271 -83.6546
0.577477 -6.35271 -83.6546
0.433083 -6.35271 -83.6546
0.288712 -6.35272 -83.6546
0.144318 -6.35271 -83.6546
-6.86646e-005 -6.35271 -83.6546
-0.144455 -6.35271 -83.6546
-0.288834 -6.35271 -83.6546
-0.43322 -6.35271 -83.6546
-0.577591 -6.35271 -83.6546
-0.721985 -6.35271 -83.6546
-0.866371 -6.35271 -83.6546
-1.01074 -6.35271 -83.6546
-1.15514 -6.35271 -83.6546
-1.29951 -6.35271 -83.6546
-1.44389 -6.35271 -83.6546
-1.58827 -6.35271 -83.6546
-1.73264 -6.3527 -83.6546
-1.87702 -6.3527 -83.6546
-2.0214 -6.3527 -83.6546
-2.16577 -6.3527 -83.6546
-2.31016 -6.3527 -83.6546
-2.45453 -6.35269 -83.6546
-2.59892 -6.35269 -83.6546
-2.7433 -6.35268 -83.6546
-2.88766 -6.35268 -83.6545
-3.03206 -6.35268 -83.6546
-3.17644 -6.35268 -83.6546
-3.32081 -6.35268 -83.6545
-3.46519 -6.35268 -83.6545
-3.60957 -6.35267 -83.6545
-3.75394 -6.35267 -83.6545
-3.89832 -6.35267 -83.6545
-4.04269 -6.35266 -83.6545
-4.18708 -6.35266 -83.6545
-4.33145 -6.35266 -83.6545
-4.47583 -6.35266 -83.6545
-4.62021 -6.35265 -83.6545
-4.76459 -6.35265 -83.6545
-4.90897 -6.35265 -83.6545
-5.05334 -6.35265 -83.6545
-5.19772 -6.35265 -83.6545
-5.34209 -6.35265 -83.6545
-5.48647 -6.35264 -83.6545
-5.63086 -6.35264 -83.6545
-5.77523 -6.35264 -83.6545
-5.91961 -6.35263 -83.6545
-6.06398 -6.35263 -83.6545
-6.20837 -6.35263 -83.6545
-6.35274 -6.35263 -83.6545
-6.49712 -6.35263 -83.6545
-6.6415 -6.35262 -83.6545
-6.78587 -6.35262 -83.6545
-6.93025 -6.35262 -83.6545
-7.07462 -6.35261 -83.6545
-7.21901 -6.35262 -83.6545
-7.36339 -6.35261 -83.6545
-7.50777 -6.35261 -83.6545
-7.65215 -6.35261 -83.6545
-7.79651 -6.35261 -83.6545
-7.9409 -6.3526 -83.6545
-8.08528 -6.3526 -83.6545
-8.22964 -6.3526 -83.6545
-8.37402 -6.35259 -83.6545
-8.51863 -6.35271 -83.6567
-8.66415 -6.35349 -83.6682
-8.811 -6.35539 -83.6918
-8.95899 -6.35793 -83.7239
-9.10862 -6.36145 -83.771
-9.25873 -6.36543 -83.8212
-9.41089 -6.37049 -83.8882
-9.56351 -6.37566 -83.9574
-9.71795 -6.3821 -84.0412
-9.8733 -6.38874 -84.1298
-10.0308 -6.3964 -84.2314
-10.1897 -6.40489 -84.3421
-10.3498 -6.41417 -84.4627
-10.5128 -6.42464 -84.6009
-10.6778 -6.43589 -84.7506
-10.8457 -6.44881 -84.9215
-11.0186 -6.46418 -85.1247
-11.1952 -6.48135 -85.3511
-11.3737 -6.49916 -85.5857
-11.5532 -6.51709 -85.8216
-11.7337 -6.5351 -86.0588
-11.9151 -6.55322 -86.2973
-12.0976 -6.57142 -86.5372
-12.2811 -6.58974 -86.7784
-12.4656 -6.60816 -87.0209
-12.6511 -6.62668 -87.2648
-12.8377 -6.64531 -87.51
-13.0254 -6.66404 -87.7567
-13.2141 -6.68287 -88.0047
-13.4038 -6.70182 -88.2541
-13.5947 -6.72087 -88.505
-13.7866 -6.74004 -88.7572
-13.9797 -6.75931 -89.0109
-14.1865 -6.78497 -89.3457
14.1374 -7.06862 -95.2491
13.9297 -7.04685 -94.9527
13.7272 -7.02707 -94.6861
13.5258 -7.0074 -94.4209
13.3255 -6.98784 -94.1572
13.1263 -6.9684 -93.895
12.9283 -6.94905 -93.6343
12.7313 -6.92981 -93.375
12.5354 -6.91069 -93.1171
12.3407 -6.89166 -92.8607
12.1469 -6.87274 -92.6056
11.9543 -6.85392 -92.352
11.7627 -6.83521 -92.0997
11.5721 -6.81659 -91.8488
11.3826 -6.79807 -91.5993
11.1941 -6.77965 -91.3512
11.0066 -6.76133 -91.1044
10.8201 -6.7431 -90.8589
10.6347 -6.72498 -90.6147
10.4502 -6.70695 -90.3719
10.2667 -6.68902 -90.1303
10.0842 -6.67118 -89.89
9.90266 -6.65344 -89.651
9.72209 -6.6358 -89.4133
9.54247 -6.61824 -89.1768
9.36378 -6.60078 -88.9416
9.18607 -6.5834 -88.7076
9.00927 -6.56612 -88.4749
8.83339 -6.54894 -88.2433
8.65842 -6.53184 -88.013
8.48438 -6.51483 -87.7839
8.31124 -6.49791 -87.556
8.13899 -6.48108 -87.3292
7.96764 -6.46433 -87.1036
7.79716 -6.44767 -86.8792
7.62756 -6.4311 -86.6559
7.45883 -6.4146 -86.4338
7.29098 -6.3982 -86.2128
7.12396 -6.38188 -85.9929
6.95781 -6.36565 -85.7742
6.79249 -6.34949 -85.5565
6.62801 -6.33341 -85.34
6.46437 -6.31742 -85.1246
6.30238 -6.30236 -84.9213
6.14267 -6.28876 -84.7383
5.98492 -6.27678 -84.5776
5.82922 -6.26641 -84.4381
5.67489 -6.25662 -84.3072
5.52179 -6.24798 -84.1918
5.36942 -6.24012 -84.0844
5.21828 -6.23305 -83.9869
5.06816 -6.22649 -83.899
4.9185 -6.22036 -83.8178
4.76971 -6.21507 -83.747
4.62156 -6.21014 -83.6817
4.4743 -6.20624 -83.6285
4.32762 -6.20271 -83.5796
4.18177 -6.20005 -83.5457
4.03615 -6.19795 -83.5162
3.8913 -6.19731 -83.5048
3.74692 -6.19678 -83.4986
3.60281 -6.19677 -83.4986
3.45868 -6.19677 -83.4986
3.31458 -6.19677 -83.4986
3.17046 -6.19678 -83.4986
3.02634 -6.19678 -83.4986
2.88223 -6.19677 -83.4986
2.73812 -6.19678 -83.4986
2.594 -6.19677 -83.4986
2.44988 -6.19677 -83.4986
2.30577 -6.19677 -83.4986
2.16166 -6.19677 -83.4986
2.01755 -6.19677 -83.4986
1.87343 -6.19677 -83.4986
1.72931 -6.19677 -83.4986
1.5852 -6.19677 -83.4986
1.44109 -6.19677 -83.4986
1.29697 -6.19676 -83.4986
1.15285 -6.19677 -83.4986
1.00874 -6.19677 -83.4986
0.864632 -6.19677 -83.4986
0.720512 -6.19677 -83.4986
0.576401 -6.19677 -83.4986
0.432281 -6.19676 -83.4986
0.288162 -6.19677 -83.4986
0.144043 -6.19677 -83.4986
-6.86646e-005 -6.19677 -83.4986
-0.14418 -6.19677 -83.4986
-0.288292 -6.19676 -83.4986
-0.432404 -6.19677 -83.4986
-0.576508 -6.19676 -83.4986
-0.720634 -6.19677 -83.4986
-0.864746 -6.19677 -83.4986
-1.00887 -6.19677 -83.4986
-1.15298 -6.19676 -83.4986
-1.29709 -6.19676 -83.4986
-1.44119 -6.19676 -83.4986
-1.5853 -6.19676 -83.4986
-1.72942 -6.19675 -83.4986
-1.87353 -6.19676 -83.4986
-2.01763 -6.19675 -83.4986
-2.16174 -6.19675 -83.4986
-2.30585 -6.19675 -83.4986
-2.44997 -6.19674 -83.4986
-2.59407 -6.19674 -83.4986
-2.73818 -6.19674 -83.4986
-2.88229 -6.19674 -83.4986
-3.02641 -6.19673 -83.4986
-3.17051 -6.19673 -83.4986
-3.31462 -6.19673 -83.4986
-3.45872 -6.19673 -83.4986
-3.60282 -6.19672 -83.4986
-3.74694 -6.19672 -83.4986
-3.89105 -6.19672 -83.4986
-4.03516 -6.19672 -83.4986
-4.17927 -6.19671 -83.4986
-4.32338 -6.19672 -83.4986
-4.46748 -6.19671 -83.4986
-4.6116 -6.19671 -83.4986
-4.75571 -6.19671 -83.4986
-4.89981 -6.19671 -83.4986
-5.04391 -6.1967 -83.4986
-5.18803 -6.1967 -83.4986
-5.33214 -6.1967 -83.4986
-5.47625 -6.19669 -83.4986
-5.62035 -6.19669 -83.4986
-5.76447 -6.19669 -83.4986
-5.90858 -6.19669 -83.4986
-6.05269 -6.19668 -83.4986
-6.19679 -6.19668 -83.4986
-6.3409 -6.19668 -83.4985
-6.485 -6.19667 -83.4985
-6.62912 -6.19668 -83.4986
-6.77322 -6.19667 -83.4985
-6.91733 -6.19667 -83.4985
-7.06145 -6.19668 -83.4985
-7.20555 -6.19667 -83.4985
-7.34966 -6.19666 -83.4985
-7.49377 -6.19666 -83.4985
-7.63788 -6.19666 -83.4985
-7.78199 -6.19666 -83.4985
-7.92609 -6.19665 -83.4985
-8.07021 -6.19665 -83.4985
-8.21432 -6.19665 -83.4985
-8.35912 -6.19702 -83.5055
-8.50433 -6.19789 -83.5171
-8.65182 -6.20042 -83.5491
-8.79993 -6.20315 -83.5855
-8.94952 -6.20688 -83.6354
-9.10004 -6.21121 -83.6923
-9.25184 -6.21608 -83.7591
-9.40479 -6.22171 -83.8349
-9.55888 -6.22794 -83.9185
-9.71467 -6.23485 -84.0137
-9.87185 -6.24241 -84.1151
-10.031 -6.25126 -84.2329
-10.1912 -6.26056 -84.3569
-10.3545 -6.27106 -84.4998
-10.5201 -6.28284 -84.6596
-10.6887 -6.29612 -84.8393
-10.8621 -6.31168 -85.0497
-11.0391 -6.32897 -85.2827
-11.217 -6.34635 -85.5169
-11.3959 -6.36383 -85.7524
-11.5758 -6.3814 -85.9892
-11.7566 -6.39908 -86.2273
-11.9385 -6.41685 -86.4668
-12.1214 -6.43472 -86.7076
-12.3053 -6.45269 -86.9497
-12.4903 -6.47076 -87.1932
-12.6763 -6.48893 -87.438
-12.8633 -6.5072 -87.6843
-13.0514 -6.52558 -87.9319
-13.2405 -6.54406 -88.1809
-13.4308 -6.56266 -88.4314
-13.6221 -6.58135 -88.6832
-13.8145 -6.60015 -88.9365
-14.008 -6.61907 -89.1912
-14.2214 -6.64723 -89.5657
14.1707 -6.92067 -95.4736
13.9575 -6.89671 -95.1422
13.7545 -6.8773 -94.8745
13.5526 -6.85801 -94.6082
13.3519 -6.83884 -94.3435
13.1522 -6.81977 -94.0803
12.9537 -6.80079 -93.8185
12.7563 -6.78194 -93.5582
12.56 -6.76318 -93.2993
12.3647 -6.74452 -93.0418
12.1706 -6.72597 -92.7858
11.9775 -6.70752 -92.5312
11.7854 -6.68917 -92.278
11.5944 -6.67092 -92.0261
11.4045 -6.65276 -91.7756
11.2156 -6.6347 -91.5265
11.0277 -6.61674 -91.2788
10.8408 -6.59887 -91.0323
10.6549 -6.5811 -90.7872
10.47 -6.56342 -90.5435
10.2861 -6.54584 -90.301
10.1032 -6.52834 -90.0598
9.92131 -6.51095 -89.8199
9.74035 -6.49365 -89.5813
9.56035 -6.47644 -89.3439
9.38129 -6.45932 -89.1078
9.20317 -6.44229 -88.873
9.026 -6.42535 -88.6393
8.84975 -6.4085 -88.4069
8.67444 -6.39174 -88.1758
8.50003 -6.37506 -87.9458
8.32652 -6.35847 -87.717
8.15392 -6.34198 -87.4894
7.98222 -6.32556 -87.263
7.8114 -6.30923 -87.0378
7.64145 -6.29298 -86.8137
7.47239 -6.27681 -86.5907
7.30418 -6.26073 -86.3689
7.13683 -6.24473 -86.1483
6.97035 -6.22881 -85.9287
6.80471 -6.21297 -85.7103
6.6399 -6.19722 -85.493
6.47593 -6.18154 -85.2768
6.31279 -6.16595 -85.0617
6.1506 -6.15057 -84.8496
5.99062 -6.13664 -84.6571
5.83321 -6.12469 -84.4925
5.67706 -6.11374 -84.3423
5.52274 -6.10391 -84.2073
5.36989 -6.09514 -84.0877
5.21744 -6.0868 -83.9728
5.06649 -6.07996 -83.8753
4.91637 -6.07315 -83.7803
4.76721 -6.06715 -83.6994
4.61826 -6.06144 -83.6216
4.47044 -6.0567 -83.5565
4.32308 -6.05224 -83.4959
4.17662 -6.04881 -83.4471
4.03075 -6.04576 -83.4052
3.88538 -6.0434 -83.3737
3.74052 -6.04223 -83.3548
3.59611 -6.04141 -83.3433
3.45226 -6.04141 -83.3433
3.30841 -6.04141 -83.3433
3.16457 -6.04141 -83.3433
3.02072 -6.04141 -83.3433
2.87688 -6.04141 -83.3433
2.73302 -6.04141 -83.3433
2.58919 -6.0414 -83.3433
2.44533 -6.0414 -83.3433
2.30149 -6.0414 -83.3433
2.15764 -6.0414 -83.3433
2.01379 -6.0414 -83.3433
1.86995 -6.0414 -83.3433
1.7261 -6.0414 -83.3433
1.58225 -6.0414 -83.3433
1.4384 -6.0414 -83.3433
1.29456 -6.0414 -83.3433
1.15072 -6.0414 -83.3433
1.00687 -6.0414 -83.3433
0.863022 -6.0414 -83.3433
0.719177 -6.0414 -83.3433
0.575325 -6.0414 -83.3433
0.431473 -6.0414 -83.3433
0.287636 -6.0414 -83.3433
0.143791 -6.0414 -83.3433
-4.57764e-005 -6.0414 -83.3433
-0.143906 -6.0414 -83.3433
-0.28775 -6.0414 -83.3433
-0.431595 -6.0414 -83.3433
-0.575455 -6.0414 -83.3433
-0.719292 -6.0414 -83.3433
-0.863136 -6.0414 -83.3433
-1.00698 -6.04139 -83.3433
-1.15083 -6.04139 -83.3433
-1.29467 -6.0414 -83.3433
-1.43851 -6.04139 -83.3433
-1.58236 -6.04139 -83.3433
-1.7262 -6.04139 -83.3433
-1.87004 -6.04139 -83.3432
-2.01389 -6.04139 -83.3433
-2.15772 -6.04139 -83.3432
-2.30156 -6.04139 -83.3433
-2.4454 -6.04138 -83.3432
-2.58924 -6.04138 -83.3432
-2.73309 -6.04137 -83.3432
-2.87692 -6.04137 -83.3432
-3.02077 -6.04136 -83.3432
-3.16461 -6.04137 -83.3432
-3.30846 -6.04136 -83.3432
-3.45229 -6.04136 -83.3432
-3.59612 -6.04136 -83.3432
-3.73997 -6.04136 -83.3432
-3.88381 -6.04136 -83.3432
-4.02766 -6.04136 -83.3432
-4.17149 -6.04135 -83.3432
-4.31533 -6.04135 -83.3432
-4.45918 -6.04135 -83.3432
-4.603 -6.04134 -83.3432
-4.74686 -6.04134 -83.3432
-4.8907 -6.04134 -83.3432
-5.03453 -6.04133 -83.3432
-5.17838 -6.04133 -83.3432
-5.32221 -6.04133 -83.3432
-5.46605 -6.04133 -83.3432
-5.60989 -6.04132 -83.3432
-5.75375 -6.04133 -83.3432
-5.89759 -6.04132 -83.3432
-6.04142 -6.04132 -83.3432
-6.18526 -6.04132 -83.3432
-6.3291 -6.04131 -83.3432
-6.47295 -6.04131 -83.3432
-6.61678 -6.04131 -83.3432
-6.76062 -6.04131 -83.3432
-6.90446 -6.04131 -83.3432
-7.04829 -6.0413 -83.3432
-7.19214 -6.0413 -83.3432
-7.33598 -6.04129 -83.3432
-7.47982 -6.04129 -83.3432
-7.62367 -6.0413 -83.3432
-7.76751 -6.04129 -83.3432
-7.91135 -6.04129 -83.3432
-8.05523 -6.04131 -83.3436
-8.20015 -6.04197 -83.355
-8.34595 -6.04351 -83.375
-8.49319 -6.04595 -83.4069
-8.6417 -6.04906 -83.4505
-8.79095 -6.0528 -83.5004
-8.94186 -6.05745 -83.5639
-9.09328 -6.06213 -83.6305
-9.24655 -6.0682 -83.7127
-9.4004 -6.0743 -83.7973
-9.5566 -6.08147 -83.8981
-9.71388 -6.08923 -84.0042
-9.87276 -6.09802 -84.1239
-10.0337 -6.10768 -84.2564
-10.1966 -6.11788 -84.3994
-10.3628 -6.13013 -84.5688
-10.5328 -6.1441 -84.7624
-10.7068 -6.15997 -84.9817
-10.8831 -6.17683 -85.2143
-11.0605 -6.19378 -85.4482
-11.2388 -6.21082 -85.6833
-11.4181 -6.22795 -85.9197
-11.5984 -6.2452 -86.1575
-11.7797 -6.26253 -86.3965
-11.962 -6.27995 -86.6369
-12.1453 -6.29747 -86.8786
-12.3297 -6.31509 -87.1217
-12.515 -6.33281 -87.3662
-12.7015 -6.35064 -87.612
-12.8889 -6.36856 -87.8592
-13.0775 -6.38657 -88.1078
-13.2671 -6.4047 -88.3578
-13.4578 -6.42294 -88.6093
-13.6496 -6.44127 -88.8621
-13.8424 -6.45972 -89.1165
-14.0364 -6.47826 -89.3723
-14.2673 -6.51341 -89.8562
14.2043 -6.77205 -95.6996
13.9854 -6.74596 -95.3324
13.7819 -6.72695 -95.0636
13.5795 -6.70804 -94.7963
13.3783 -6.68924 -94.5306
13.1782 -6.67054 -94.2663
12.9793 -6.65195 -94.0035
12.7814 -6.63347 -93.7421
12.5846 -6.61509 -93.4822
12.3889 -6.59681 -93.2238
12.1943 -6.57863 -92.9667
12.0008 -6.56055 -92.7111
11.8083 -6.54257 -92.4569
11.6169 -6.52469 -92.204
11.4265 -6.50689 -91.9526
11.2371 -6.48919 -91.7025
11.0488 -6.47159 -91.4538
10.8615 -6.45408 -91.2064
10.6752 -6.43665 -90.9604
10.49 -6.41934 -90.7157
10.3057 -6.40211 -90.4723
10.1224 -6.38498 -90.2302
9.94005 -6.36793 -89.9894
9.75868 -6.35098 -89.7499
9.57829 -6.33411 -89.5116
9.39886 -6.31733 -89.2746
9.22037 -6.30066 -89.0389
9.04282 -6.28406 -88.8044
8.8662 -6.26754 -88.5712
8.6905 -6.25112 -88.3391
8.51572 -6.23478 -88.1083
8.34187 -6.21853 -87.8786
8.16891 -6.20236 -87.6502
7.99686 -6.18626 -87.423
7.82568 -6.17027 -87.1969
7.65539 -6.15435 -86.972
7.48598 -6.13852 -86.7482
7.31743 -6.12276 -86.5257
7.14976 -6.10709 -86.3042
6.98293 -6.09149 -86.0839
6.81696 -6.07597 -85.8647
6.65182 -6.06054 -85.6466
6.48753 -6.04517 -85.4296
6.32406 -6.0299 -85.2137
6.16142 -6.01469 -84.9989
5.9996 -5.99957 -84.7852
5.83951 -5.98548 -84.5857
5.68165 -5.97284 -84.4073
5.52536 -5.9615 -84.2479
5.37121 -5.95185 -84.1118
5.21827 -5.94271 -83.9837
5.06637 -5.93454 -83.8692
4.91527 -5.92722 -83.764
4.76524 -5.92054 -83.6673
4.61622 -5.9144 -83.5812
4.46754 -5.90859 -83.5006
4.31977 -5.90366 -83.4316
4.17252 -5.89899 -83.3667
4.02617 -5.89539 -83.3149
3.88028 -5.89205 -83.2664
3.7352 -5.8896 -83.2337
3.5903 -5.88768 -83.2054
3.44606 -5.88708 -83.1941
3.30228 -5.88662 -83.1885
3.15868 -5.88662 -83.1885
3.01512 -5.88661 -83.1885
2.87153 -5.88661 -83.1885
2.72795 -5.88661 -83.1885
2.58437 -5.88661 -83.1885
2.44079 -5.88661 -83.1885
2.29723 -5.88661 -83.1885
2.15363 -5.88661 -83.1885
2.01005 -5.88661 -83.1885
1.86648 -5.88661 -83.1885
1.72289 -5.88661 -83.1885
1.57932 -5.88661 -83.1885
1.43575 -5.88661 -83.1885
1.29217 -5.88661 -83.1885
1.14857 -5.88661 -83.1885
1.00499 -5.88661 -83.1885
0.861412 -5.88661 -83.1885
0.71785 -5.88662 -83.1885
0.574265 -5.88661 -83.1885
0.430679 -5.88661 -83.1885
0.287102 -5.8866 -83.1885
0.143524 -5.88661 -83.1885
-6.10352e-005 -5.88661 -83.1885
-0.143631 -5.88661 -83.1885
-0.287216 -5.8866 -83.1885
-0.430794 -5.8866 -83.1885
-0.574371 -5.8866 -83.1885
-0.717957 -5.8866 -83.1885
-0.861526 -5.8866 -83.1885
-1.00511 -5.8866 -83.1885
-1.1487 -5.8866 -83.1885
-1.29227 -5.8866 -83.1885
-1.43585 -5.8866 -83.1885
-1.57941 -5.8866 -83.1885
-1.723 -5.8866 -83.1885
-1.86655 -5.88659 -83.1885
-2.01015 -5.88659 -83.1885
-2.15372 -5.88659 -83.1885
-2.29729 -5.88659 -83.1885
-2.44086 -5.88659 -83.1885
-2.58443 -5.88659 -83.1885
-2.728 -5.88658 -83.1884
-2.87157 -5.88658 -83.1884
-3.01516 -5.88658 -83.1885
-3.15872 -5.88657 -83.1884
-3.3023 -5.88657 -83.1884
-3.44588 -5.88657 -83.1884
-3.58946 -5.88657 -83.1884
-3.73302 -5.88657 -83.1884
-3.8766 -5.88657 -83.1884
-4.02016 -5.88655 -83.1884
-4.16374 -5.88656 -83.1884
-4.30732 -5.88656 -83.1884
-4.45088 -5.88655 -83.1884
-4.59447 -5.88656 -83.1884
-4.73804 -5.88655 -83.1884
-4.8816 -5.88654 -83.1884
-5.02519 -5.88654 -83.1884
-5.16876 -5.88654 -83.1884
-5.31233 -5.88654 -83.1884
-5.4559 -5.88654 -83.1884
-5.59948 -5.88654 -83.1884
-5.74305 -5.88654 -83.1884
-5.88662 -5.88654 -83.1884
-6.0302 -5.88653 -83.1884
-6.17377 -5.88653 -83.1884
-6.31734 -5.88652 -83.1884
-6.46091 -5.88652 -83.1884
-6.60448 -5.88652 -83.1884
-6.74806 -5.88652 -83.1884
-6.89164 -5.88652 -83.1884
-7.03521 -5.88652 -83.1884
-7.17879 -5.88651 -83.1884
-7.32236 -5.88651 -83.1884
-7.46593 -5.88651 -83.1884
-7.6095 -5.88651 -83.1884
-7.75308 -5.8865 -83.1884
-7.89713 -5.88675 -83.1935
-8.04176 -5.88751 -83.205
-8.18815 -5.88967 -83.2334
-8.33522 -5.89208 -83.2665
-8.48397 -5.89553 -83.316
-8.63329 -5.89945 -83.3695
-8.78413 -5.90411 -83.4358
-8.93577 -5.90917 -83.508
-9.08878 -5.9151 -83.5909
-9.24306 -5.92143 -83.6821
-9.39897 -5.92852 -83.7827
-9.55656 -5.93663 -83.8959
-9.71489 -5.94518 -84.0152
-9.87661 -5.9551 -84.1562
-10.0401 -5.96583 -84.3091
-10.206 -5.97783 -84.4795
-10.3771 -5.99236 -84.6857
-10.5517 -6.00849 -84.9138
-10.7275 -6.02493 -85.146
-10.9043 -6.04145 -85.3795
-11.082 -6.05806 -85.6143
-11.2607 -6.07476 -85.8503
-11.4404 -6.09156 -86.0877
-11.6211 -6.10845 -86.3264
-11.8028 -6.12543 -86.5664
-11.9856 -6.14251 -86.8077
-12.1693 -6.15969 -87.0504
-12.3541 -6.17696 -87.2944
-12.5399 -6.19432 -87.5398
-12.7268 -6.21178 -87.7867
-12.9147 -6.22935 -88.0349
-13.1037 -6.24701 -88.2845
-13.2938 -6.26479 -88.5355
-13.4849 -6.28265 -88.7879
-13.6772 -6.30063 -89.0418
-13.8705 -6.31869 -89.2972
-14.0663 -6.33748 -89.5626
14.2432 -6.62492 -95.9623
14.0134 -6.5946 -95.5233
13.8094 -6.57598 -95.2535
13.6066 -6.55747 -94.9852
13.4049 -6.53905 -94.7183
13.2043 -6.52074 -94.453
13.0049 -6.50254 -94.1891
12.8065 -6.48443 -93.9268
12.6093 -6.46642 -93.6658
12.4132 -6.44852 -93.4064
12.2181 -6.43071 -93.1483
12.0241 -6.413 -92.8917
11.8312 -6.39539 -92.6365
11.6394 -6.37788 -92.3827
11.4486 -6.36046 -92.1302
11.2588 -6.34312 -91.8792
11.0701 -6.32588 -91.6295
10.8823 -6.30873 -91.3812
10.6956 -6.29168 -91.1342
10.5099 -6.27471 -90.8886
10.3252 -6.25784 -90.6443
10.1416 -6.24106 -90.4013
9.95883 -6.22437 -90.1595
9.77708 -6.20776 -89.9191
9.59631 -6.19125 -89.68
9.41649 -6.17482 -89.4421
9.23763 -6.15849 -89.2055
9.0597 -6.14223 -88.9701
8.8827 -6.12606 -88.736
8.70663 -6.10997 -88.5031
8.5315 -6.09398 -88.2714
8.35726 -6.07806 -88.0409
8.18396 -6.06223 -87.8116
8.01154 -6.04648 -87.5835
7.84001 -6.03081 -87.3566
7.66937 -6.01522 -87.1309
7.49962 -5.99971 -86.9063
7.33075 -5.98428 -86.6829
7.16271 -5.96893 -86.4607
6.99556 -5.95367 -86.2395
6.82925 -5.93848 -86.0195
6.6638 -5.92336 -85.8007
6.49917 -5.90832 -85.5829
6.33539 -5.89336 -85.3662
6.17242 -5.87847 -85.1507
6.01029 -5.86366 -84.9362
5.84898 -5.84892 -84.7228
5.68872 -5.83456 -84.5145
5.53043 -5.82139 -84.3236
5.37471 -5.81031 -84.1634
5.22016 -5.80013 -84.0167
5.06716 -5.79084 -83.8827
4.91562 -5.78266 -83.7658
4.76445 -5.77489 -83.6531
4.6146 -5.76844 -83.5565
4.46562 -5.76208 -83.4634
4.31747 -5.75641 -83.3831
4.16956 -5.75108 -83.307
4.02264 -5.74659 -83.2424
3.87623 -5.74246 -83.1833
3.73056 -5.73922 -83.1348
3.58548 -5.73639 -83.0942
3.44083 -5.73416 -83.063
3.29662 -5.73314 -83.0452
3.15283 -5.7324 -83.0343
3.00952 -5.7324 -83.0343
2.8662 -5.73239 -83.0343
2.7229 -5.73239 -83.0343
2.57957 -5.7324 -83.0343
2.43627 -5.7324 -83.0343
2.29296 -5.7324 -83.0343
2.14964 -5.7324 -83.0343
2.00634 -5.73239 -83.0343
1.86302 -5.7324 -83.0343
1.71969 -5.7324 -83.0343
1.5764 -5.7324 -83.0343
1.43307 -5.7324 -83.0343
1.28976 -5.7324 -83.0343
1.14645 -5.73239 -83.0343
1.00314 -5.7324 -83.0343
0.859825 -5.7324 -83.0343
0.716522 -5.73239 -83.0343
0.573204 -5.73239 -83.0343
0.429893 -5.7324 -83.0343
0.28656 -5.73239 -83.0343
0.143242 -5.73239 -83.0343
-5.34058e-005 -5.73239 -83.0343
-0.143372 -5.7324 -83.0343
-0.28669 -5.73239 -83.0343
-0.429993 -5.73239 -83.0343
-0.573303 -5.73239 -83.0343
-0.716621 -5.73239 -83.0343
-0.85994 -5.73239 -83.0343
-1.00324 -5.73239 -83.0343
-1.14655 -5.73239 -83.0343
-1.28987 -5.73238 -83.0342
-1.43318 -5.73239 -83.0343
-1.57649 -5.73238 -83.0342
-1.71979 -5.73239 -83.0343
-1.86311 -5.73238 -83.0342
-2.00641 -5.73238 -83.0342
-2.14973 -5.73238 -83.0342
-2.29303 -5.73238 -83.0342
-2.43634 -5.73237 -83.0342
-2.57964 -5.73236 -83.0342
-2.72295 -5.73237 -83.0342
-2.86626 -5.73237 -83.0342
-3.00956 -5.73236 -83.0342
-3.15289 -5.73236 -83.0342
-3.29618 -5.73236 -83.0342
-3.43949 -5.73235 -83.0342
-3.58279 -5.73235 -83.0342
-3.7261 -5.73235 -83.0342
-3.86941 -5.73235 -83.0342
-4.01271 -5.73234 -83.0342
-4.15602 -5.73234 -83.0342
-4.29933 -5.73235 -83.0342
-4.44263 -5.73234 -83.0342
-4.58595 -5.73233 -83.0342
-4.72925 -5.73233 -83.0342
-4.87255 -5.73233 -83.0342
-5.01586 -5.73233 -83.0342
-5.15918 -5.73233 -83.0342
-5.30248 -5.73232 -83.0342
-5.44579 -5.73232 -83.0342
-5.5891 -5.73232 -83.0342
-5.73241 -5.73232 -83.0342
-5.8757 -5.73232 -83.0342
-6.01902 -5.73231 -83.0342
-6.16233 -5.73231 -83.0342
-6.30563 -5.73231 -83.0342
-6.44894 -5.73231 -83.0342
-6.59225 -5.7323 -83.0342
-6.73554 -5.7323 -83.0342
-6.87886 -5.7323 -83.0342
-7.02217 -5.7323 -83.0342
-7.16547 -5.73229 -83.0342
-7.30878 -5.73229 -83.0342
-7.45209 -5.73228 -83.0342
-7.5954 -5.73229 -83.0342
-7.73961 -5.73277 -83.044
-7.88442 -5.73398 -83.0606
-8.03091 -5.73632 -83.0923
-8.17832 -5.73908 -83.1325
-8.32675 -5.74255 -83.182
-8.47643 -5.74677 -83.2421
-8.6269 -5.75124 -83.3082
-8.77883 -5.75673 -83.3867
-8.93147 -5.76245 -83.4694
-9.08617 -5.76902 -83.5673
-9.24188 -5.77608 -83.669
-9.39955 -5.78441 -83.7878
-9.55851 -5.79325 -83.9148
-9.71989 -5.80289 -84.0562
-9.88392 -5.81408 -84.2191
-10.0511 -5.82674 -84.4033
-10.2225 -5.84134 -84.6155
-10.3968 -5.85726 -84.8461
-10.5721 -5.87327 -85.0779
-10.7483 -5.88936 -85.311
-10.9254 -5.90554 -85.5454
-11.1036 -5.92181 -85.7811
-11.2827 -5.93817 -86.018
-11.4628 -5.95463 -86.2563
-11.644 -5.97116 -86.4959
-11.8261 -5.9878 -86.7369
-12.0092 -6.00453 -86.9792
-12.1934 -6.02135 -87.2228
-12.3786 -6.03827 -87.4678
-12.5649 -6.05528 -87.7142
-12.7522 -6.07239 -87.962
-12.9406 -6.08959 -88.2112
-13.13 -6.1069 -88.4618
-13.3205 -6.12429 -88.7138
-13.5122 -6.1418 -88.9673
-13.7048 -6.1594 -89.2222
-13.8987 -6.17711 -89.4786
-14.0963 -6.19613 -89.7537
14.3008 -6.48532 -96.35
14.0418 -6.44273 -95.7167
13.8371 -6.42441 -95.4441
13.6338 -6.40629 -95.1747
13.4316 -6.38826 -94.9068
13.2305 -6.37035 -94.6405
13.0306 -6.35252 -94.3755
12.8318 -6.3348 -94.1121
12.6341 -6.31717 -93.8502
12.4375 -6.29964 -93.5897
12.242 -6.28222 -93.3306
12.0476 -6.26488 -93.073
11.8543 -6.24765 -92.8168
11.662 -6.2305 -92.562
11.4707 -6.21345 -92.3086
11.2805 -6.19649 -92.0566
11.0914 -6.17962 -91.8059
10.9032 -6.16283 -91.5567
10.7161 -6.14614 -91.3087
10.53 -6.12953 -91.0621
10.3449 -6.11302 -90.8169
10.1608 -6.0966 -90.573
9.9777 -6.08026 -90.3303
9.79554 -6.06401 -90.089
9.61438 -6.04785 -89.8489
9.43417 -6.03177 -89.6102
9.25492 -6.01578 -89.3727
9.07661 -5.99987 -89.1364
8.89925 -5.98405 -88.9014
8.72282 -5.96831 -88.6676
8.54732 -5.95265 -88.4351
8.37272 -5.93707 -88.2037
8.19905 -5.92158 -87.9736
8.02628 -5.90617 -87.7447
7.8544 -5.89084 -87.517
7.68342 -5.87558 -87.2904
7.51331 -5.86041 -87.065
7.34409 -5.84531 -86.8408
7.17572 -5.83029 -86.6177
7.00823 -5.81535 -86.3958
6.8416 -5.80048 -86.175
6.6758 -5.78569 -85.9553
6.51085 -5.77097 -85.7368
6.34675 -5.75634 -85.5193
6.18347 -5.74177 -85.303
6.02101 -5.72728 -85.0877
5.85937 -5.71285 -84.8736
5.69855 -5.69851 -84.6605
5.53854 -5.68423 -84.4484
5.38029 -5.67109 -84.2527
5.22421 -5.65938 -84.0789
5.06945 -5.64875 -83.9219
4.91671 -5.63972 -83.788
4.76514 -5.6312 -83.6626
4.61444 -5.62348 -83.549
4.46455 -5.6167 -83.4461
4.31563 -5.6104 -83.3501
4.16768 -5.60467 -83.2659
4.01999 -5.59917 -83.1859
3.8732 -5.59459 -83.1184
3.72685 -5.59019 -83.0541
3.58138 -5.58687 -83.0037
3.43629 -5.58372 -82.9555
3.29195 -5.58144 -82.924
3.14777 -5.57971 -82.8969
3.00411 -5.57916 -82.8857
2.86091 -5.57875 -82.8806
2.71786 -5.57875 -82.8806
2.57481 -5.57875 -82.8806
2.43176 -5.57875 -82.8806
2.28872 -5.57875 -82.8806
2.14567 -5.57874 -82.8806
2.00262 -5.57875 -82.8806
1.85957 -5.57875 -82.8806
1.71652 -5.57875 -82.8806
1.57348 -5.57875 -82.8806
1.43043 -5.57875 -82.8806
1.28738 -5.57875 -82.8806
1.14433 -5.57875 -82.8806
1.00128 -5.57875 -82.8806
0.858238 -5.57875 -82.8806
0.715179 -5.57875 -82.8806
0.572151 -5.57875 -82.8806
0.429092 -5.57875 -82.8806
0.286041 -5.57875 -82.8806
0.142998 -5.57874 -82.8806
-6.10352e-005 -5.57875 -82.8806
-0.143105 -5.57875 -82.8806
-0.286156 -5.57875 -82.8806
-0.429192 -5.57874 -82.8806
-0.572235 -5.57874 -82.8806
-0.715294 -5.57874 -82.8806
-0.85833 -5.57874 -82.8806
-1.0014 -5.57874 -82.8806
-1.14442 -5.57874 -82.8806
-1.28748 -5.57874 -82.8806
-1.43053 -5.57875 -82.8806
-1.57357 -5.57874 -82.8806
-1.71661 -5.57874 -82.8806
-1.85965 -5.57873 -82.8806
-2.00272 -5.57874 -82.8806
-2.14574 -5.57873 -82.8806
-2.28878 -5.57873 -82.8806
-2.43182 -5.57873 -82.8806
-2.57487 -5.57873 -82.8806
-2.7179 -5.57872 -82.8806
-2.86095 -5.57872 -82.8806
-3.004 -5.57872 -82.8806
-3.14704 -5.57871 -82.8806
-3.29008 -5.57871 -82.8806
-3.43312 -5.57871 -82.8806
-3.57617 -5.57871 -82.8806
-3.71922 -5.57871 -82.8806
-3.86224 -5.5787 -82.8806
-4.00529 -5.5787 -82.8806
-4.14832 -5.5787 -82.8806
-4.29138 -5.5787 -82.8806
-4.43441 -5.57869 -82.8806
-4.57746 -5.5787 -82.8806
-4.7205 -5.57869 -82.8805
-4.86355 -5.57869 -82.8806
-5.00659 -5.57869 -82.8806
-5.14962 -5.57869 -82.8805
-5.29268 -5.57868 -82.8806
-5.43571 -5.57868 -82.8805
-5.57875 -5.57867 -82.8805
-5.72179 -5.57867 -82.8805
-5.86485 -5.57867 -82.8805
-6.00789 -5.57867 -82.8805
-6.15092 -5.57867 -82.8805
-6.29396 -5.57866 -82.8805
-6.437 -5.57866 -82.8805
-6.58006 -5.57867 -82.8805
-6.72309 -5.57866 -82.8805
-6.86613 -5.57866 -82.8805
-7.00918 -5.57866 -82.8805
-7.15221 -5.57865 -82.8805
-7.29526 -5.57865 -82.8805
-7.4386 -5.5788 -82.8838
-7.58263 -5.57944 -82.8952
-7.728 -5.58124 -82.92
-7.87418 -5.58348 -82.9516
-8.02196 -5.58657 -82.999
-8.1701 -5.5901 -83.0492
-8.32003 -5.59453 -83.115
-8.47039 -5.59905 -83.1836
-8.62234 -5.6047 -83.2659
-8.77515 -5.61049 -83.3532
-8.92979 -5.6171 -83.4528
-9.08579 -5.62449 -83.5615
-9.24291 -5.63258 -83.68
-9.4026 -5.6417 -83.8153
-9.56401 -5.65142 -83.9615
-9.7281 -5.66266 -84.1292
-9.89655 -5.67593 -84.3272
-10.0685 -5.69078 -84.5482
-10.2422 -5.70628 -84.7784
-10.4169 -5.72185 -85.0099
-10.5925 -5.73752 -85.2426
-10.7691 -5.75328 -85.4766
-10.9467 -5.76912 -85.7119
-11.1253 -5.78504 -85.9485
-11.3048 -5.80106 -86.1864
-11.4853 -5.81714 -86.4256
-11.6669 -5.83334 -86.6662
-11.8494 -5.84962 -86.908
-12.033 -5.866 -87.1513
-12.2176 -5.88247 -87.3959
-12.4033 -5.89902 -87.6419
-12.59 -5.91568 -87.8893
-12.7777 -5.93243 -88.1381
-12.9666 -5.94926 -88.3883
-13.1565 -5.96621 -88.6399
-13.3474 -5.98325 -88.8929
-13.5395 -6.00038 -89.1474
-13.7327 -6.01761 -89.4034
-13.927 -6.03495 -89.6608
-14.1264 -6.05417 -89.9455
14.0711 -6.29058 -95.9175
13.8648 -6.27224 -95.6356
13.661 -6.2545 -95.3651
13.4584 -6.23687 -95.0961
13.2569 -6.21934 -94.8287
13.0565 -6.20191 -94.5627
12.8572 -6.18457 -94.2982
12.659 -6.16734 -94.0353
12.462 -6.15019 -93.7737
12.266 -6.13314 -93.5137
12.0712 -6.11618 -93.255
11.8774 -6.09933 -92.9978
11.6846 -6.08255 -92.742
11.493 -6.06588 -92.4876
11.3024 -6.04929 -92.2346
11.1128 -6.03278 -91.983
10.9242 -6.01637 -91.7328
10.7367 -6.00003 -91.4839
10.5502 -5.9838 -91.2364
10.3647 -5.96765 -90.9902
10.1802 -5.95159 -90.7453
9.99664 -5.93561 -90.5018
9.8141 -5.91971 -90.2595
9.63253 -5.9039 -90.0185
9.45194 -5.88818 -89.7789
9.2723 -5.87254 -89.5405
9.09361 -5.85698 -89.3033
8.91587 -5.84151 -89.0674
8.73907 -5.82612 -88.8328
8.5632 -5.8108 -88.5994
8.38824 -5.79556 -88.3672
8.2142 -5.78042 -88.1362
8.04107 -5.76534 -87.9064
7.86884 -5.75035 -87.6779
7.69751 -5.73543 -87.4505
7.52705 -5.72059 -87.2243
7.35748 -5.70583 -86.9992
7.18878 -5.69114 -86.7753
7.02095 -5.67653 -86.5526
6.85398 -5.66198 -86.331
6.68785 -5.64752 -86.1105
6.52259 -5.63313 -85.8912
6.35815 -5.61881 -85.673
6.19455 -5.60457 -85.4558
6.03177 -5.5904 -85.2398
5.86982 -5.57629 -85.0249
5.70868 -5.56227 -84.811
5.54835 -5.54831 -84.5983
5.38883 -5.53442 -84.3865
5.23048 -5.52102 -84.1821
5.07395 -5.50874 -83.9946
4.91975 -5.49837 -83.8369
4.76674 -5.48893 -83.6937
4.61507 -5.48016 -83.5607
4.46484 -5.47257 -83.4464
4.3149 -5.46535 -83.336
4.16615 -5.45929 -83.2401
4.01827 -5.45335 -83.149
3.8711 -5.448 -83.0693
3.72422 -5.44304 -82.9948
3.57819 -5.43881 -82.9307
3.43268 -5.43499 -82.873
3.28783 -5.43195 -82.8249
3.14352 -5.42932 -82.7856
2.99957 -5.42722 -82.7546
2.85603 -5.42633 -82.7379
2.71284 -5.42567 -82.7275
2.57006 -5.42567 -82.7275
2.42728 -5.42567 -82.7275
2.28449 -5.42567 -82.7275
2.14171 -5.42567 -82.7275
1.99893 -5.42567 -82.7275
1.85614 -5.42567 -82.7275
1.71336 -5.42567 -82.7275
1.57058 -5.42566 -82.7275
1.42779 -5.42567 -82.7275
1.285 -5.42566 -82.7275
1.14222 -5.42567 -82.7275
0.999443 -5.42567 -82.7275
0.856659 -5.42567 -82.7275
0.713875 -5.42567 -82.7275
0.571083 -5.42567 -82.7275
0.428307 -5.42567 -82.7275
0.285515 -5.42567 -82.7275
0.142738 -5.42567 -82.7275
