# .PCD v0.7 - Point Cloud Data file format
VERSION 0.7
FIELDS x y z
SIZE 4 4 4
TYPE F F F
COUNT 1 1 1
WIDTH 208
HEIGHT 1
VIEWPOINT 0 0 0 1 0 0 0
POINTS 208
DATA ascii
1.4295069 1.3643898 1.4506696
6.0009336 0.94784361 1.1408949
9.9981804 0.98407674 1.104979
13.996022 0.94855255 1.1381142
17.999088 0.94784027 1.1408952
22.20186 1.0825888 1.1678669
24 2.4570663 2.5472209
1.0177305 5.9718504 1.101575
6.0218954 5.9818506 0
10.033509 5.9818411 0
14.04515 5.9818344 0
17.978102 5.9818387 0
22.308956 5.9861107 0.1451706
24 5.9502115 2.5472209
1.0256128 9.990077 1.105713
6.0218964 9.9933586 0
10.033506 9.9933901 0
14.045134 9.9933672 0
17.978102 9.9933815 0
22.28723 10.000216 0.13994114
24 9.9749298 2.5472207
1.0211444 14.001289 1.1036998
6.0218949 14.004918 0
10.033507 14.004919 0
14.045143 14.004913 0
17.978102 14.004906 0
22.298954 14.002396 0.14258704
24 13.999684 2.5472212
1.0256128 18.012581 1.1057134
6.0218959 18.016363 0
10.033508 18.016392 0
14.045147 18.016378 0
17.978106 18.01647 0
22.289337 18.007133 0.14075682
24 18.02437 2.5472207
1.0173248 22.032251 1.100843
6.0218954 22.028008 0
10.033508 22.028011 0
14.045145 22.028008 0
17.978104 22.027985 0
22.308361 22.023664 0.14433962
24 22.049128 2.5472209
1.0211444 25.984444 1.1036996
6.0218959 25.960869 0
10.033509 25.960833 0
14.045147 25.960794 0
17.978107 25.960808 0
22.29895 25.975407 0.14258698
24 25.997944 2.5472209
1.0691965 30.102423 1.1349742
6.016221 30.114346 0.052751806
10.030606 30.107052 0.051807281
14.041791 30.111332 0.05195066
17.983767 30.114302 0.052751809
22.487043 30.324682 0.54886681
24 29.567026 2.5472207
2.3031361 32.091248 2.2145624
5.9861431 32.093388 2.2053094
9.9701614 32.093353 2.2034543
13.957153 32.093407 2.203305
18.013876 32.09341 2.2052948
21.696877 32.091255 2.2145598
1.1099714 0.99303466 6.0310121
5.9872413 0 6.0247006
9.9715958 0 6.0246949
13.955959 0 6.0246797
18.012772 0 6.0246911
22.217344 0.10574795 6.0253625
24 2.4570653 6.0403295
0 5.9502292 6.0403309
24 5.9502206 6.0403304
0 9.974968 6.0403275
24 9.9749317 6.0403285
0 13.999632 6.0403295
24 13.999668 6.0403299
0 18.024382 6.0403285
24 18.024406 6.0403285
0 22.049082 6.0403295
24 22.049124 6.040329
0 25.997837 6.0403295
24 25.997963 6.0403299
0.070157699 30.163107 6.0367627
23.750826 31.68417 6.0276675
24 29.566948 6.0403299
2.2922692 32.097111 6.0246153
5.9872403 32.099758 6.0246811
9.9715958 32.099762 6.0247049
13.955958 32.099758 6.0246787
18.012775 32.099758 6.024693
21.707745 32.097115 6.0246043
1.0914879 1.0115501 9.9998999
5.9872398 0 10.009111
9.9715958 0 10.009134
13.955958 0 10.009119
18.012774 0 10.009104
22.226326 0.1081071 10.006677
24 2.4570677 9.9890604
0 5.9502263 9.9890652
24 5.9502249 9.9890575
0 9.9749365 9.9890623
24 9.974947 9.9890633
0 13.999755 9.9890642
24 13.999662 9.9890623
0 18.024317 9.9890633
24 18.02441 9.9890633
0 22.049131 9.9890566
24 22.04915 9.9890604
0 25.997889 9.9890623
24 25.99789 9.9890623
0.068947427 30.156349 9.9919357
23.752621 31.681709 9.9993706
24 29.567028 9.9890556
2.2922688 32.097111 10.009149
5.9872394 32.099762 10.009116
9.9715958 32.09977 10.009136
13.95596 32.099762 10.009111
18.012772 32.099762 10.009131
21.707741 32.097111 10.009184
1.0918711 1.013308 14.002294
5.9872403 0 13.993561
9.9715977 0 13.993551
13.955958 0 13.99354
18.012772 0 13.99355
22.223347 0.10781919 13.99513
24 2.4570611 14.013724
0 5.9502425 14.013739
24 5.9502239 14.01372
0 9.9749479 14.013721
24 9.9749594 14.013719
0 13.999742 14.013724
24 13.999649 14.013721
0 18.02438 14.013719
24 18.024345 14.013721
0 22.049097 14.013715
24 22.049055 14.013723
0 25.997915 14.013717
24 25.997873 14.013718
0.068227731 30.151917 14.009754
23.753473 31.680273 13.999379
24 29.566988 14.013721
2.2922702 32.097115 13.993727
5.9872394 32.099758 13.993568
9.9715948 32.099762 13.993505
13.955958 32.099758 13.99358
18.012774 32.099758 13.993576
21.707741 32.097111 13.993726
1.6839482 1.6018728 17.247263
6.0075121 1.4034519 17.374575
10.01031 1.4344475 17.387625
14.015253 1.4025218 17.375471
17.992504 1.4034489 17.374584
22.188595 1.5371472 17.31377
24 2.4570661 16.367779
1.4934337 5.9819193 17.416176
6.0218959 5.981842 17.700109
10.033509 5.9818368 17.700113
14.045145 5.9818416 17.700109
17.978106 5.9818387 17.700109
22.308947 5.9861336 17.554874
24 5.9502273 16.367785
1.5103667 9.997261 17.419235
6.0218959 9.9933853 17.700113
10.03351 9.9933786 17.700115
14.045146 9.993392 17.700113
17.978104 9.993371 17.700113
22.287237 10.000226 17.560125
24 9.9749489 16.367785
1.5011404 14.002057 17.41765
6.0218954 14.004901 17.700109
10.033509 14.004885 17.700113
14.045148 14.004915 17.700109
17.978102 14.00492 17.700109
22.298958 14.002365 17.557497
24 13.999672 16.367783
1.5087411 18.009163 17.418667
6.0218959 18.016417 17.700113
10.03351 18.016407 17.700115
14.045149 18.016417 17.700113
17.978104 18.016432 17.700113
22.287241 18.004639 17.560097
24 18.024397 16.367786
1.4939547 22.026587 17.416893
6.0218959 22.028021 17.700109
10.033511 22.027914 17.700113
14.045147 22.028034 17.700109
17.978104 22.028002 17.700109
22.310474 22.021044 17.554882
24 22.049109 16.367786
1.5011399 25.978079 17.41769
6.0218959 25.960878 17.700109
10.033509 25.960833 17.700113
14.04515 25.960857 17.700109
17.978102 25.960825 17.700109
22.298948 25.975491 17.55747
24 25.997898 16.367786
1.5467381 30.083403 17.382263
6.0162287 30.114338 17.647373
10.022522 30.100266 17.649166
14.03318 30.118134 17.647255
17.983774 30.114285 17.647354
22.306618 30.132469 17.478481
24 29.567005 16.367785
2.3230259 32.080608 16.625023
5.9841523 32.082096 16.631599
9.9925432 32.081718 16.636663
13.983057 32.082462 16.628525
18.015839 32.082096 16.631575
21.67697 32.080566 16.625006
