ply
format ascii 1.0
element vertex 1819
property float32 x
property float32 y
property float32 z
element face 0
property list uint8 int32 vertex_indices
end_header
3.29211 1.37175 -79.4813
3.15041 1.36972 -79.3688
3.00936 1.36776 -79.262
2.86925 1.36638 -79.1707
2.72953 1.36506 -79.0811
2.59117 1.36386 -79.0186
2.45325 1.363 -78.9731
2.31648 1.36262 -78.9531
2.18021 1.3625 -78.946
2.04434 1.36293 -78.9651
1.90886 1.36343 -79.0009
1.77372 1.36445 -79.0581
1.63888 1.36588 -79.1364
1.50382 1.36716 -79.2231
1.36876 1.36882 -79.32
1.23352 1.37069 -79.4223
1.09804 1.37273 -79.5386
0.962158 1.37484 -79.6602
0.826233 1.3773 -79.8025
0.689911 1.37999 -79.9595
0.553116 1.38297 -80.1348
0.41581 1.38627 -80.3257
0.277832 1.38959 -80.5175
0.139198 1.39292 -80.7102
-9.91821e-005 1.39627 -80.9039
-0.140068 1.39963 -81.0984
-0.280708 1.40301 -81.294
-0.422028 1.4064 -81.4904
-0.564041 1.40981 -81.6879
-0.706734 1.41324 -81.8862
-0.850113 1.41669 -82.0856
-0.994209 1.42015 -82.2859
-1.13901 1.42363 -82.4872
-1.28452 1.42712 -82.6895
-1.43074 1.43063 -82.8927
-1.57767 1.43417 -83.097
-1.72534 1.43771 -83.3023
-1.87373 1.44128 -83.5086
-2.02287 1.44486 -83.7159
-2.17276 1.44846 -83.9243
-2.32339 1.45208 -84.1337
-2.47477 1.45572 -84.3441
-2.62691 1.45937 -84.5556
-2.77982 1.46304 -84.7682
-2.93348 1.46673 -84.9818
-3.08794 1.47044 -85.1965
-3.24318 1.47417 -85.4124
-3.39919 1.47792 -85.6293
-3.556 1.48169 -85.8473
-3.71363 1.48547 -86.0664
-3.87206 1.48928 -86.2866
-4.0313 1.4931 -86.508
-4.19135 1.49694 -86.7305
-4.35222 1.50081 -86.9542
-4.51393 1.50469 -87.179
-4.67648 1.50861 -87.405
-4.83989 1.51253 -87.6321
-5.00413 1.51648 -87.8604
-5.16924 1.52044 -88.09
-5.33521 1.52443 -88.3207
-5.50206 1.52843 -88.5527
-5.66978 1.53246 -88.7858
-5.83838 1.53651 -89.0202
-6.00789 1.54059 -89.2558
-6.17828 1.54468 -89.4927
-6.34959 1.5488 -89.7309
-6.52182 1.55293 -89.9703
-6.69495 1.55709 -90.211
-6.86903 1.56127 -90.453
-7.04403 1.56548 -90.6963
-7.21999 1.5697 -90.9409
-7.39689 1.57396 -91.1868
-7.57475 1.57823 -91.4341
-7.75358 1.58252 -91.6827
-7.93338 1.58684 -91.9326
-8.11417 1.59118 -92.184
-8.29595 1.59555 -92.4367
-8.47873 1.59994 -92.6908
-8.66252 1.60435 -92.9463
-8.84732 1.6088 -93.2032
-9.03314 1.61326 -93.4615
-9.22 1.61775 -93.7213
-9.40791 1.62225 -93.9825
-9.59686 1.62678 -94.2452
-9.78687 1.63133 -94.5094
-9.97794 1.63591 -94.775
-10.1701 1.6405 -95.0422
-10.3633 1.64513 -95.3108
-10.5577 1.64979 -95.581
-10.7531 1.65447 -95.8527
-10.9497 1.65918 -96.126
-11.1474 1.66392 -96.4008
-11.3462 1.66867 -96.6772
-11.5462 1.67348 -96.9552
-11.7473 1.67829 -97.2348
-11.9495 1.68313 -97.5161
-12.153 1.688 -97.7989
-12.3576 1.69291 -98.0834
-12.5634 1.69784 -98.3696
-12.7705 1.7028 -98.6574
-12.9787 1.70778 -98.9469
-13.1882 1.7128 -99.2381
-13.3989 1.71785 -99.5311
-13.6109 1.72293 -99.8257
-13.8241 1.72803 -100.122
-14.0387 1.73317 -100.421
14.1544 1.7897 -94.267
13.9422 1.78313 -93.9343
13.7387 1.77778 -93.6517
13.5363 1.77247 -93.3709
13.3352 1.76718 -93.0918
13.1352 1.76192 -92.8142
12.9365 1.75669 -92.5384
12.7389 1.75151 -92.2642
12.5425 1.74634 -91.9916
12.3473 1.7412 -91.7206
12.1532 1.7361 -91.4512
11.9602 1.73103 -91.1834
11.7684 1.72599 -90.9171
11.5777 1.72097 -90.6524
11.388 1.71599 -90.3893
11.1995 1.71101 -90.1276
11.0121 1.70608 -89.8675
10.8258 1.70117 -89.6089
10.6405 1.69629 -89.3517
10.4563 1.69142 -89.0961
10.2731 1.6866 -88.8419
10.091 1.6818 -88.5891
9.90986 1.67703 -88.3378
9.7298 1.67228 -88.0878
9.55074 1.66756 -87.8394
9.3727 1.66286 -87.5923
9.19566 1.65821 -87.3465
9.01961 1.65357 -87.1022
8.84454 1.64895 -86.8592
8.67043 1.64436 -86.6176
8.4973 1.6398 -86.3773
8.32513 1.63527 -86.1384
8.15391 1.63075 -85.9007
7.98362 1.62626 -85.6644
7.81428 1.6218 -85.4294
7.64585 1.61737 -85.1956
7.47834 1.61295 -84.9632
7.31176 1.60856 -84.732
7.14606 1.60419 -84.502
6.98128 1.59985 -84.2733
6.81738 1.59553 -84.0458
6.65437 1.59124 -83.8196
6.49223 1.58696 -83.5945
6.33095 1.58271 -83.3707
6.17054 1.57848 -83.1481
6.01098 1.57428 -82.9266
5.85226 1.5701 -82.7064
5.6944 1.56593 -82.4873
5.53737 1.5618 -82.2694
5.38115 1.55768 -82.0526
5.22576 1.55358 -81.8369
5.07119 1.54951 -81.6224
4.91744 1.54546 -81.409
4.76447 1.54142 -81.1967
4.61231 1.53742 -80.9855
4.46093 1.53343 -80.7754
4.31033 1.52946 -80.5664
4.16052 1.52551 -80.3585
4.01191 1.52177 -80.1606
3.86497 1.51844 -79.9826
3.72014 1.51557 -79.8311
3.57629 1.51305 -79.6978
3.4332 1.51066 -79.5729
3.2914 1.50851 -79.4657
3.15018 1.50654 -79.3638
3.0098 1.50506 -79.2738
2.87002 1.50356 -79.1901
2.73091 1.50201 -79.1157
2.59233 1.50072 -79.0514
2.45443 1.49998 -79.0043
2.31729 1.49945 -78.9829
2.18115 1.49951 -78.9792
2.04501 1.49973 -78.9942
1.90967 1.50036 -79.0338
1.77436 1.50145 -79.0886
1.63941 1.50296 -79.1608
1.50424 1.50444 -79.2357
1.36887 1.50587 -79.3226
1.23327 1.50743 -79.4127
1.09769 1.50948 -79.5153
0.961823 1.51162 -79.6238
0.825577 1.51392 -79.7447
0.689102 1.51647 -79.8786
0.552353 1.51922 -80.0232
0.415131 1.52245 -80.1953
0.277359 1.52597 -80.3818
0.138969 1.52963 -80.5738
-9.91821e-005 1.53329 -80.7668
-0.139832 1.53698 -80.9608
-0.280228 1.54068 -81.1556
-0.42131 1.5444 -81.3514
-0.563072 1.54814 -81.5482
-0.705521 1.5519 -81.7458
-0.848663 1.55568 -81.9445
-0.9925 1.55947 -82.1441
-1.13703 1.56328 -82.3447
-1.28229 1.56712 -82.5463
-1.42825 1.57096 -82.7489
-1.57493 1.57483 -82.9525
-1.72234 1.57872 -83.157
-1.87047 1.58263 -83.3626
-2.01934 1.58656 -83.5692
-2.16895 1.5905 -83.7768
-2.31929 1.59447 -83.9855
-2.47041 1.59845 -84.1952
-2.62226 1.60246 -84.406
-2.77487 1.60648 -84.6178
-2.92827 1.61053 -84.8307
-3.08244 1.61459 -85.0446
-3.23737 1.61869 -85.2596
-3.3931 1.62278 -85.4758
-3.54961 1.62692 -85.693
-3.70694 1.63107 -85.9113
-3.86504 1.63524 -86.1308
-4.024 1.63943 -86.3513
-4.18373 1.64364 -86.5731
-4.34431 1.64788 -86.7959
-4.50571 1.65214 -87.0199
-4.66794 1.65641 -87.245
-4.831 1.66072 -87.4714
-4.99493 1.66504 -87.6989
-5.15971 1.66939 -87.9276
-5.32536 1.67376 -88.1574
-5.49187 1.67815 -88.3885
-5.65924 1.68257 -88.6208
-5.82751 1.687 -88.8543
-5.99667 1.69147 -89.0891
-6.16671 1.69595 -89.3251
-6.33767 1.70046 -89.5623
-6.50954 1.70499 -89.8009
-6.68232 1.70955 -90.0407
-6.85603 1.71413 -90.2817
-7.03066 1.71873 -90.5241
-7.20625 1.72337 -90.7678
-7.38277 1.72803 -91.0128
-7.56026 1.7327 -91.2591
-7.7387 1.73741 -91.5068
-7.91812 1.74214 -91.7558
-8.09853 1.7469 -92.0061
-8.2799 1.75169 -92.2579
-8.46228 1.75649 -92.511
-8.64565 1.76133 -92.7655
-8.83006 1.7662 -93.0214
-9.01548 1.77109 -93.2787
-9.20191 1.77601 -93.5375
-9.38941 1.78094 -93.7977
-9.57792 1.78591 -94.0593
-9.76751 1.79089 -94.3224
-9.95816 1.79591 -94.5871
-10.1499 1.80095 -94.8531
-10.3427 1.80602 -95.1207
-10.5366 1.81113 -95.3898
-10.7316 1.81625 -95.6605
-10.9277 1.82141 -95.9326
-11.1249 1.82661 -96.2063
-11.3232 1.83183 -96.4817
-11.5227 1.83707 -96.7585
-11.7234 1.84235 -97.037
-11.9251 1.84766 -97.3171
-12.1281 1.853 -97.5987
-12.3323 1.85837 -97.8821
-12.5376 1.86377 -98.1671
-12.7441 1.8692 -98.4537
-12.9519 1.87466 -98.742
-13.1608 1.88017 -99.032
-13.371 1.8857 -99.3237
-13.5824 1.89126 -99.6172
-13.7951 1.89685 -99.9124
-14.0091 1.90247 -100.209
-14.252 1.91198 -100.705
14.1206 1.9477 -94.0425
13.9125 1.94112 -93.7343
13.7095 1.93531 -93.453
13.5077 1.92953 -93.1733
13.307 1.92378 -92.8954
13.1076 1.91807 -92.619
12.9094 1.91239 -92.3443
12.7123 1.90675 -92.0713
12.5164 1.90113 -91.7998
12.3216 1.89556 -91.5299
12.128 1.89001 -91.2617
11.9355 1.8845 -90.995
11.7441 1.87902 -90.7298
11.5539 1.87358 -90.4662
11.3647 1.86815 -90.2041
11.1766 1.86275 -89.9435
10.9897 1.85738 -89.6845
10.8038 1.85205 -89.4269
10.6189 1.84674 -89.1708
10.4351 1.84148 -88.9162
10.2524 1.83623 -88.663
10.0707 1.83102 -88.4112
9.89002 1.82582 -88.1609
9.71037 1.82067 -87.912
9.53172 1.81554 -87.6645
9.3541 1.81044 -87.4184
9.17745 1.80537 -87.1736
9.0018 1.80034 -86.9303
8.82711 1.79531 -86.6882
8.6534 1.79033 -86.4476
8.48067 1.78538 -86.2082
8.30887 1.78044 -85.9702
8.13802 1.77554 -85.7335
7.96812 1.77066 -85.4981
7.79913 1.76581 -85.2639
7.63108 1.76099 -85.0311
7.46394 1.75619 -84.7995
7.29771 1.75142 -84.5692
7.13239 1.74668 -84.3402
6.96794 1.74196 -84.1123
6.80439 1.73726 -83.8857
6.64172 1.73259 -83.6603
6.47992 1.72795 -83.4362
6.31899 1.72333 -83.2132
6.15891 1.71874 -82.9914
5.99967 1.71417 -82.7708
5.8413 1.70963 -82.5513
5.68375 1.7051 -82.333
5.52704 1.7006 -82.1159
5.37115 1.69613 -81.8999
5.21607 1.69168 -81.6851
5.06181 1.68725 -81.4714
4.90836 1.68284 -81.2587
4.75571 1.67846 -81.0472
4.60384 1.67411 -80.8368
4.45275 1.66977 -80.6275
4.30247 1.66546 -80.4193
4.15381 1.66157 -80.2294
4.00717 1.65816 -80.0639
3.86203 1.65512 -79.9155
3.71795 1.65247 -79.7878
3.57491 1.64997 -79.6703
3.43275 1.64762 -79.5628
3.29145 1.64575 -79.4675
3.15073 1.6441 -79.3771
3.0109 1.64244 -79.2994
2.87148 1.64077 -79.2248
2.73261 1.63944 -79.1625
2.59402 1.63818 -79.1028
2.45622 1.63751 -79.062
2.31857 1.63692 -79.0318
2.18253 1.63675 -79.0321
2.04641 1.63711 -79.0495
1.91077 1.63781 -79.0843
1.77552 1.63895 -79.1394
1.64012 1.64018 -79.1978
1.50477 1.64171 -79.2668
1.36926 1.64334 -79.3393
1.23357 1.64494 -79.4223
1.09758 1.64653 -79.5096
0.961555 1.6486 -79.6085
0.825302 1.65084 -79.7115
0.688736 1.65332 -79.8303
0.551727 1.65592 -79.9549
0.414581 1.65888 -80.0983
0.276939 1.6622 -80.2594
0.138725 1.66587 -80.4379
-0.000106812 1.66986 -80.6303
-0.139595 1.67387 -80.8235
-0.279747 1.67789 -81.0177
-0.420593 1.68193 -81.2129
-0.562119 1.686 -81.4089
-0.704315 1.69008 -81.606
-0.847214 1.69419 -81.8039
-0.990799 1.69831 -82.0029
-1.13509 1.70247 -82.2028
-1.28008 1.70662 -82.4037
-1.42577 1.71081 -82.6055
-1.57219 1.71501 -82.8084
-1.71934 1.71924 -83.0123
-1.8672 1.72349 -83.2171
-2.0158 1.72776 -83.423
-2.16515 1.73205 -83.6299
-2.31522 1.73635 -83.8379
-2.46603 1.74068 -84.0468
-2.61762 1.74504 -84.2569
-2.76996 1.74941 -84.4679
-2.92308 1.75382 -84.68
-3.07695 1.75823 -84.8932
-3.23159 1.76268 -85.1075
-3.38702 1.76714 -85.3228
-3.54326 1.77163 -85.5393
-3.70027 1.77614 -85.7568
-3.85808 1.78067 -85.9755
-4.01671 1.78523 -86.1953
-4.17616 1.78981 -86.4162
-4.33643 1.79441 -86.6382
-4.4975 1.79904 -86.8614
-4.65942 1.80369 -87.0857
-4.82217 1.80836 -87.3112
-4.98576 1.81306 -87.5379
-5.15022 1.81779 -87.7657
-5.31552 1.82253 -87.9948
-5.4817 1.8273 -88.225
-5.64875 1.8321 -88.4564
-5.81667 1.83693 -88.6891
-5.98548 1.84178 -88.923
-6.15518 1.84665 -89.1581
-6.32578 1.85155 -89.3945
-6.49731 1.85648 -89.6321
-6.66972 1.86143 -89.871
-6.84306 1.86641 -90.1111
-7.01734 1.87142 -90.3526
-7.19256 1.87645 -90.5954
-7.3687 1.88151 -90.8394
-7.54581 1.8866 -91.0848
-7.72388 1.8917 -91.3315
-7.90292 1.89685 -91.5795
-8.08292 1.90202 -91.8289
-8.26391 1.90722 -92.0797
-8.4459 1.91245 -92.3318
-8.62888 1.9177 -92.5854
-8.81287 1.92299 -92.8403
-8.99787 1.92831 -93.0966
-9.18391 1.93365 -93.3543
-9.37097 1.93902 -93.6135
-9.55908 1.9444 -93.8742
-9.74823 1.94983 -94.1362
-9.93845 1.95528 -94.3998
-10.1297 1.96076 -94.6648
-10.3221 1.96627 -94.9314
-10.5155 1.97182 -95.1994
-10.7101 1.97739 -95.4689
-10.9057 1.983 -95.74
-11.1025 1.98863 -96.0126
-11.3004 1.99431 -96.2868
-11.4994 2.00001 -96.5626
-11.6995 2.00574 -96.8399
-11.9009 2.01152 -97.1188
-12.1033 2.01732 -97.3994
-12.307 2.02315 -97.6815
-12.5118 2.02902 -97.9654
-12.7178 2.03493 -98.2508
-12.9251 2.04087 -98.538
-13.1336 2.04684 -98.8268
-13.3432 2.05285 -99.1173
-13.5541 2.05889 -99.4095
-13.7663 2.06497 -99.7035
-13.9797 2.07108 -99.9992
-14.2094 2.07967 -100.404
14.0891 2.10527 -93.8328
13.883 2.09843 -93.5352
13.6805 2.09216 -93.2551
13.4791 2.08592 -92.9766
13.279 2.07972 -92.6998
13.0801 2.07356 -92.4246
12.8824 2.06744 -92.1511
12.6858 2.06134 -91.8792
12.4903 2.05529 -91.6088
12.2961 2.04927 -91.3401
12.1029 2.0433 -91.0729
11.9109 2.03735 -90.8073
11.72 2.03143 -90.5433
11.5302 2.02554 -90.2807
11.3415 2.01969 -90.0197
11.1539 2.01387 -89.7602
10.9673 2.00808 -89.5022
10.7819 2.00233 -89.2457
10.5975 1.99659 -88.9906
10.4141 1.99091 -88.737
10.2318 1.98526 -88.4848
10.0505 1.97962 -88.2341
9.87026 1.97403 -87.9848
9.69102 1.96846 -87.7368
9.51279 1.96293 -87.4903
9.33556 1.95743 -87.2452
9.15932 1.95196 -87.0014
8.98406 1.94652 -86.759
8.80978 1.94111 -86.5179
8.63646 1.93573 -86.2782
8.4641 1.93037 -86.0398
8.29269 1.92506 -85.8027
8.12222 1.91977 -85.5669
7.95267 1.91451 -85.3324
7.78407 1.90928 -85.0992
7.61638 1.90407 -84.8672
7.4496 1.89889 -84.6366
7.28374 1.89374 -84.4071
7.11875 1.88862 -84.1789
6.95466 1.88353 -83.952
6.79147 1.87846 -83.7262
6.62913 1.87343 -83.5017
6.46767 1.86841 -83.2784
6.30707 1.86342 -83.0562
6.14732 1.85847 -82.8353
5.98842 1.85353 -82.6155
5.83036 1.84863 -82.3969
5.67314 1.84375 -82.1794
5.51675 1.83889 -81.9631
5.36117 1.83406 -81.7479
5.20643 1.82926 -81.5338
5.05247 1.82448 -81.3209
4.89932 1.81973 -81.1091
4.74696 1.815 -80.8983
4.5954 1.8103 -80.6887
4.44485 1.80573 -80.4845
4.29594 1.8016 -80.2983
4.14968 1.79818 -80.1453
4.0044 1.79507 -80.0059
3.85993 1.79219 -79.8779
3.71695 1.78962 -79.768
3.57449 1.78713 -79.662
3.4331 1.78532 -79.5713
3.29218 1.78353 -79.484
3.15217 1.78172 -79.409
3.01253 1.78002 -79.3378
2.87341 1.77865 -79.2777
2.73465 1.77739 -79.2218
2.59644 1.77649 -79.177
2.45855 1.77562 -79.1375
2.32116 1.77496 -79.1151
2.18436 1.7747 -79.1081
2.04826 1.77532 -79.1266
1.91254 1.77614 -79.1594
1.77694 1.77702 -79.2034
1.64127 1.77805 -79.2518
1.50558 1.77938 -79.3104
1.36977 1.78084 -79.373
1.23397 1.7826 -79.4458
1.09795 1.78436 -79.5223
0.961624 1.78611 -79.6098
0.825081 1.78804 -79.7019
0.688499 1.79047 -79.8052
0.551575 1.79302 -79.9162
0.414223 1.79576 -80.0379
0.276558 1.79885 -80.175
0.138535 1.80219 -80.3236
-0.000106812 1.80603 -80.4969
-0.139351 1.81029 -80.6868
-0.279274 1.81463 -80.8803
-0.419884 1.819 -81.0748
-0.56115 1.82339 -81.2702
-0.703117 1.8278 -81.4665
-0.845757 1.83223 -81.6638
-0.98909 1.83668 -81.8621
-1.13313 1.84116 -82.0613
-1.27787 1.84565 -82.2615
-1.42332 1.85017 -82.4627
-1.56947 1.85471 -82.6649
-1.71635 1.85927 -82.868
-1.86395 1.86386 -83.0722
-2.01228 1.86846 -83.2773
-2.16135 1.87309 -83.4835
-2.31116 1.87775 -83.6907
-2.46172 1.88243 -83.899
-2.61301 1.88712 -84.1082
-2.76507 1.89185 -84.3186
-2.91788 1.89659 -84.5299
-3.07147 1.90136 -84.7424
-3.22584 1.90616 -84.9559
-3.38099 1.91098 -85.1704
-3.53691 1.91582 -85.3861
-3.69363 1.92068 -85.6029
-3.85114 1.92558 -85.8208
-4.00948 1.9305 -86.0397
-4.16861 1.93545 -86.2598
-4.32854 1.94041 -86.4811
-4.48931 1.9454 -86.7034
-4.65092 1.95043 -86.927
-4.81336 1.95547 -87.1516
-4.97663 1.96054 -87.3775
-5.14075 1.96564 -87.6045
-5.30574 1.97077 -87.8327
-5.47157 1.97592 -88.0621
-5.6383 1.98109 -88.2926
-5.80586 1.9863 -88.5244
-5.97433 1.99153 -88.7575
-6.1437 1.9968 -88.9917
-6.31394 2.00208 -89.2272
-6.48512 2.0074 -89.4639
-6.65718 2.01274 -89.7019
-6.83016 2.01812 -89.9412
-7.00407 2.02352 -90.1817
-7.17891 2.02895 -90.4235
-7.3547 2.0344 -90.6667
-7.53144 2.0399 -90.9111
-7.70911 2.04542 -91.1569
-7.88777 2.05097 -91.404
-8.06738 2.05655 -91.6525
-8.24799 2.06215 -91.9022
-8.42957 2.06779 -92.1534
-8.61215 2.07346 -92.4059
-8.79575 2.07917 -92.6599
-8.98035 2.08491 -92.9152
-9.16596 2.09067 -93.1719
-9.35262 2.09647 -93.4301
-9.54029 2.10229 -93.6897
-9.72903 2.10814 -93.9508
-9.91881 2.11403 -94.2133
-10.1097 2.11994 -94.4773
-10.3016 2.12589 -94.7427
-10.4946 2.13187 -95.0097
-10.6887 2.13788 -95.2782
-10.8839 2.14393 -95.5482
-11.0802 2.15001 -95.8197
-11.2776 2.15614 -96.0928
-11.4762 2.16228 -96.3674
-11.6758 2.16848 -96.6436
-11.8767 2.17471 -96.9214
-12.0787 2.18096 -97.2008
-12.2818 2.18726 -97.4819
-12.4862 2.1936 -97.7645
-12.6917 2.19997 -98.0488
-12.8984 2.20638 -98.3347
-13.1064 2.21282 -98.6224
-13.3155 2.2193 -98.9117
-13.5259 2.22582 -99.2027
-13.7376 2.23238 -99.4954
-13.9504 2.23898 -99.7899
-14.1742 2.24731 -100.155
14.0578 2.2621 -93.624
13.8536 2.25508 -93.337
13.6516 2.24834 -93.058
13.4508 2.24166 -92.7807
13.2511 2.23502 -92.5051
13.0527 2.2284 -92.231
12.8554 2.22183 -91.9587
12.6593 2.2153 -91.6879
12.4644 2.20881 -91.4187
12.2706 2.20235 -91.151
12.0779 2.19593 -90.8849
11.8864 2.18956 -90.6204
11.6959 2.18321 -90.3575
11.5066 2.1769 -90.096
11.3183 2.17061 -89.8361
11.1312 2.16438 -89.5776
10.9451 2.15816 -89.3207
10.7601 2.15199 -89.0652
10.5761 2.14585 -88.8111
10.3932 2.13974 -88.5585
10.2113 2.13368 -88.3074
10.0304 2.12764 -88.0576
9.85059 2.12164 -87.8093
9.67176 2.11567 -87.5624
9.49393 2.10974 -87.3168
9.31711 2.10383 -87.0727
9.14126 2.09797 -86.8298
8.9664 2.09212 -86.5884
8.7925 2.08633 -86.3483
8.61957 2.08055 -86.1095
8.44759 2.07482 -85.872
8.27655 2.06911 -85.6358
8.10646 2.06344 -85.401
7.9373 2.05779 -85.1674
7.76906 2.05217 -84.935
7.60172 2.04659 -84.704
7.43531 2.04104 -84.4742
7.26979 2.03552 -84.2457
7.10517 2.03002 -84.0183
6.94142 2.02455 -83.7922
6.77856 2.01912 -83.5673
6.61658 2.01371 -83.3437
6.45546 2.00834 -83.1212
6.2952 2.00299 -82.8999
6.13578 1.99767 -82.6798
5.97721 1.99238 -82.4608
5.81947 1.98712 -82.243
5.66258 1.98188 -82.0263
5.5065 1.97667 -81.8108
5.35125 1.97149 -81.5964
5.1968 1.96634 -81.3832
5.04316 1.96121 -81.171
4.89031 1.9561 -80.96
4.73826 1.95103 -80.75
4.58769 1.94633 -80.5539
4.43913 1.94217 -80.3799
4.29247 1.93847 -80.2268
4.14711 1.93535 -80.0966
4.00266 1.93235 -79.9742
3.85936 1.92962 -79.8659
3.71684 1.92723 -79.7664
3.5751 1.92526 -79.6754
3.43417 1.92332 -79.5942
3.29383 1.92138 -79.519
3.15404 1.91974 -79.4535
3.01463 1.91826 -79.3933
2.87579 1.91711 -79.3434
2.73727 1.91612 -79.2985
2.5993 1.91523 -79.2655
2.46159 1.91436 -79.2366
2.32449 1.91426 -79.2244
2.18759 1.91426 -79.2201
2.05093 1.91427 -79.2303
1.91472 1.91486 -79.2531
1.77863 1.91571 -79.2816
1.64271 1.91664 -79.3227
1.50668 1.91761 -79.3668
1.37067 1.91899 -79.4233
1.23449 1.92042 -79.4821
1.0983 1.92223 -79.5525
0.961937 1.92413 -79.6256
0.82534 1.92604 -79.7103
0.6884 1.92794 -79.7981
0.551376 1.93042 -79.8991
0.414093 1.93304 -80.0029
0.276398 1.93598 -80.1242
0.138275 1.93909 -80.2518
-0.000137329 1.94257 -80.3962
-0.139137 1.94654 -80.5615
-0.278801 1.95091 -80.7434
-0.419167 1.9556 -80.9372
-0.560204 1.96031 -81.1319
-0.701904 1.96504 -81.3276
-0.844315 1.9698 -81.5242
-0.987396 1.97458 -81.7218
-1.13118 1.97937 -81.9204
-1.27567 1.9842 -82.1199
-1.42087 1.98905 -82.3204
-1.56676 1.99392 -82.5218
-1.71338 1.99882 -82.7243
-1.86071 2.00374 -82.9277
-2.00877 2.00868 -83.1321
-2.15758 2.01365 -83.3376
-2.30711 2.01865 -83.5441
-2.45737 2.02366 -83.7516
-2.60842 2.0287 -83.9601
-2.76019 2.03378 -84.1697
-2.91273 2.03887 -84.3803
-3.06602 2.04398 -84.592
-3.2201 2.04913 -84.8048
-3.37495 2.0543 -85.0186
-3.53058 2.0595 -85.2335
-3.68701 2.06472 -85.4495
-3.84422 2.06997 -85.6666
-4.00225 2.07525 -85.8848
-4.16108 2.08055 -86.1041
-4.32072 2.08588 -86.3245
-4.48117 2.09124 -86.5461
-4.64246 2.09663 -86.7688
-4.80457 2.10205 -86.9927
-4.96753 2.10748 -87.2177
-5.13133 2.11295 -87.4438
-5.29598 2.11845 -87.6712
-5.46149 2.12398 -87.8997
-5.62787 2.12954 -88.1295
-5.79511 2.13512 -88.3604
-5.96324 2.14073 -88.5926
-6.13226 2.14638 -88.8259
-6.30215 2.15205 -89.0605
-6.47296 2.15775 -89.2964
-6.64467 2.16349 -89.5335
-6.81731 2.16925 -89.7719
-6.99085 2.17505 -90.0115
-7.16533 2.18087 -90.2524
-7.34075 2.18674 -90.4946
-7.5171 2.19261 -90.7382
-7.69441 2.19854 -90.983
-7.87267 2.20449 -91.2291
-8.0519 2.21048 -91.4766
-8.23212 2.2165 -91.7255
-8.41332 2.22255 -91.9757
-8.5955 2.22863 -92.2272
-8.77869 2.23475 -92.4802
-8.96288 2.2409 -92.7345
-9.14809 2.24708 -92.9903
-9.33433 2.2533 -93.2474
-9.52159 2.25956 -93.506
-9.70988 2.26583 -93.766
-9.89925 2.27214 -94.0275
-10.0897 2.27849 -94.2905
-10.2812 2.28487 -94.5549
-10.4737 2.29128 -94.8208
-10.6674 2.29774 -95.0882
-10.8621 2.30423 -95.3571
-11.058 2.31076 -95.6275
-11.2549 2.31732 -95.8995
-11.453 2.32393 -96.1731
-11.6522 2.33055 -96.4482
-11.8526 2.33724 -96.7249
-12.0541 2.34395 -97.0031
-12.2568 2.3507 -97.283
-12.4606 2.35749 -97.5645
-12.6657 2.36433 -97.8476
-12.8719 2.3712 -98.1324
-13.0793 2.37811 -98.4188
-13.288 2.38507 -98.707
-13.4978 2.39206 -98.9968
-13.709 2.3991 -99.2883
-13.9213 2.40618 -99.5815
-14.1392 2.414 -99.9075
14.2664 2.43186 -93.9348
14.027 2.41829 -93.419
13.8243 2.41106 -93.1395
13.6228 2.40388 -92.8618
13.4225 2.39674 -92.5856
13.2234 2.38964 -92.3111
13.0254 2.3826 -92.0383
12.8287 2.37558 -91.767
12.633 2.36861 -91.4973
12.4386 2.36169 -91.2292
12.2453 2.3548 -90.9627
12.053 2.34795 -90.6978
11.862 2.34114 -90.4343
11.672 2.33437 -90.1724
11.4831 2.32763 -89.912
11.2953 2.32093 -89.6532
11.1086 2.31426 -89.3958
10.9229 2.30763 -89.1398
10.7383 2.30105 -88.8854
10.5548 2.29449 -88.6324
10.3723 2.28798 -88.3808
10.1908 2.2815 -88.1306
10.0104 2.27506 -87.8819
9.83098 2.26866 -87.6346
9.65257 2.26229 -87.3886
9.47514 2.25596 -87.1441
9.29872 2.24966 -86.9008
9.12327 2.2434 -86.659
8.9488 2.23717 -86.4185
8.7753 2.23098 -86.1793
8.60275 2.22482 -85.9414
8.43114 2.21869 -85.7049
8.26049 2.2126 -85.4696
8.09077 2.20654 -85.2356
7.92197 2.20052 -85.003
7.75411 2.19452 -84.7715
7.58714 2.18857 -84.5414
7.42107 2.18264 -84.3125
7.25591 2.17675 -84.0848
7.09163 2.17088 -83.8583
6.92825 2.16505 -83.6331
6.76573 2.15925 -83.4091
6.60409 2.15348 -83.1862
6.4433 2.14774 -82.9646
6.28337 2.14203 -82.7441
6.12428 2.13636 -82.5248
5.96603 2.1307 -82.3067
5.80862 2.12509 -82.0897
5.65205 2.1195 -81.8738
5.49629 2.11394 -81.6591
5.34135 2.10841 -81.4455
5.18722 2.10291 -81.233
5.03387 2.09743 -81.0217
4.88134 2.09199 -80.8114
4.73079 2.08717 -80.6233
4.58263 2.08302 -80.4619
4.43583 2.07929 -80.3165
4.29012 2.07594 -80.1874
4.14577 2.07288 -80.0726
4.0021 2.06995 -79.964
3.85957 2.06769 -79.8711
3.7175 2.06557 -79.7802
3.57655 2.06349 -79.7046
3.43591 2.06145 -79.63
3.29597 2.05987 -79.5696
3.1563 2.05831 -79.5105
3.01734 2.05724 -79.4654
2.87865 2.0562 -79.4229
2.74054 2.05529 -79.3939
2.60275 2.05463 -79.3707
2.46545 2.0546 -79.3605
2.32838 2.05458 -79.3565
2.19142 2.05458 -79.3565
2.05447 2.05458 -79.3565
1.91756 2.05464 -79.3658
1.78075 2.05484 -79.3799
1.64439 2.05574 -79.4085
1.50806 2.0567 -79.4425
1.37175 2.05774 -79.4867
1.23537 2.05898 -79.5364
1.09888 2.06053 -79.5954
0.962265 2.06224 -79.6595
0.825592 2.06427 -79.7328
0.688705 2.06632 -79.811
0.55143 2.06838 -79.8991
0.413925 2.0707 -79.9932
0.276306 2.0735 -80.0973
0.138313 2.0765 -80.2107
-0.000190735 2.07969 -80.3334
-0.139076 2.08334 -80.4735
-0.278412 2.08727 -80.6262
-0.418465 2.09176 -80.8008
-0.559242 2.09676 -80.9941
-0.700722 2.10182 -81.1892
-0.842865 2.1069 -81.3851
-0.985718 2.112 -81.582
-1.12924 2.11712 -81.7799
-1.27348 2.12227 -81.9787
-1.41841 2.12745 -82.1785
-1.56406 2.13265 -82.3793
-1.7104 2.13788 -82.581
-1.85748 2.14314 -82.7838
-2.00529 2.14841 -82.9875
-2.15382 2.15372 -83.1922
-2.30306 2.15904 -83.398
-2.45306 2.16441 -83.6048
-2.60382 2.16979 -83.8126
-2.75532 2.17519 -84.0214
-2.90759 2.18063 -84.2313
-3.06061 2.18611 -84.4422
-3.21439 2.19159 -84.6542
-3.36895 2.19712 -84.8673
-3.52428 2.20266 -85.0814
-3.68042 2.20824 -85.2966
-3.83733 2.21384 -85.513
-3.99506 2.21947 -85.7304
-4.15357 2.22514 -85.9489
-4.3129 2.23082 -86.1685
-4.47306 2.23655 -86.3893
-4.63403 2.2423 -86.6112
-4.79581 2.24808 -86.8342
-4.95847 2.25389 -87.0584
-5.12193 2.25972 -87.2838
-5.28626 2.26559 -87.5103
-5.45145 2.27148 -87.738
-5.61749 2.27742 -87.9669
-5.7844 2.28339 -88.197
-5.95219 2.28938 -88.4283
-6.12086 2.2954 -88.6608
-6.2904 2.30146 -88.8945
-6.46087 2.30754 -89.1295
-6.63222 2.31367 -89.3657
-6.8045 2.31982 -89.6032
-6.97768 2.326 -89.8419
-7.15179 2.33222 -90.0819
-7.32684 2.33847 -90.3232
-7.50283 2.34476 -90.5658
-7.67976 2.35108 -90.8097
-7.85765 2.35743 -91.0549
-8.03649 2.36382 -91.3015
-8.21632 2.37024 -91.5494
-8.39712 2.3767 -91.7986
-8.57891 2.38319 -92.0492
-8.7617 2.38972 -92.3012
-8.94549 2.39629 -92.5545
-9.13029 2.40289 -92.8093
-9.3161 2.40952 -93.0654
-9.50295 2.41619 -93.323
-9.69084 2.4229 -93.582
-9.87978 2.42964 -93.8425
-10.0698 2.43641 -94.1044
-10.2608 2.44322 -94.3677
-10.4529 2.45007 -94.6326
-10.6461 2.45695 -94.8989
-10.8404 2.46388 -95.1668
-11.0358 2.47085 -95.4362
-11.2323 2.47785 -95.7071
-11.43 2.4849 -95.9795
-11.6287 2.49198 -96.2535
-11.8286 2.4991 -96.529
-12.0296 2.50627 -96.8062
-12.2318 2.51348 -97.0849
-12.4352 2.52074 -97.3653
-12.6397 2.52802 -97.6472
-12.8455 2.53535 -97.9308
-13.0524 2.54273 -98.2161
-13.2605 2.55016 -98.5031
-13.4699 2.55762 -98.7917
-13.6805 2.56512 -99.082
-13.8923 2.57268 -99.374
-14.1082 2.58065 -99.6888
14.2188 2.58552 -93.6199
13.9973 2.57405 -93.2212
13.7951 2.56638 -92.943
13.5941 2.55875 -92.6663
13.3943 2.55117 -92.3914
13.1957 2.54363 -92.118
12.9983 2.53614 -91.8463
12.802 2.5287 -91.5762
12.6068 2.52129 -91.3076
12.4129 2.51394 -91.0406
12.22 2.50661 -90.7752
12.0283 2.49934 -90.5113
11.8377 2.4921 -90.249
11.6481 2.48491 -89.9882
11.4597 2.47775 -89.7288
11.2724 2.47062 -89.471
11.0861 2.46354 -89.2146
10.9009 2.45651 -88.9598
10.7167 2.44951 -88.7063
10.5336 2.44254 -88.4543
10.3515 2.43562 -88.2038
10.1705 2.42875 -87.9546
9.99046 2.4219 -87.7069
9.81145 2.41509 -87.4605
9.63345 2.40833 -87.2155
9.45643 2.4016 -86.9719
9.2804 2.39491 -86.7297
9.10535 2.38826 -86.4888
8.93127 2.38165 -86.2492
8.75815 2.37506 -86.0109
8.58599 2.36852 -85.774
8.41477 2.36201 -85.5384
8.24448 2.35554 -85.304
8.07514 2.34911 -85.071
7.90671 2.3427 -84.8392
7.7392 2.33633 -84.6087
7.5726 2.33 -84.3794
7.4069 2.3237 -84.1513
7.24209 2.31744 -83.9245
7.07816 2.31121 -83.6989
6.91511 2.30501 -83.4746
6.75294 2.29885 -83.2514
6.59163 2.29272 -83.0294
6.43118 2.28662 -82.8086
6.27158 2.28055 -82.5889
6.11282 2.27452 -82.3704
5.9549 2.26851 -82.1531
5.79782 2.26255 -81.9369
5.64156 2.25661 -81.7219
5.48611 2.2507 -81.508
5.33148 2.24482 -81.2952
5.17766 2.23898 -81.0835
5.02509 2.2334 -80.8809
4.87449 2.22841 -80.6983
4.72641 2.22416 -80.5441
4.57957 2.22043 -80.4078
4.43362 2.21689 -80.2804
4.28925 2.21377 -80.1713
4.14543 2.21083 -80.0676
4.00267 2.20852 -79.976
3.8606 2.20629 -79.8911
3.71933 2.20407 -79.8153
3.57858 2.20211 -79.7466
3.43832 2.20042 -79.686
3.29859 2.19895 -79.633
3.15936 2.19781 -79.5878
3.02058 2.19677 -79.5518
2.88222 2.1958 -79.5227
2.74445 2.19548 -79.5073
2.60693 2.19542 -79.4973
2.46972 2.19542 -79.4973
2.33251 2.19543 -79.4973
2.19531 2.19543 -79.4973
2.05811 2.19543 -79.4973
1.92091 2.19543 -79.4973
1.78371 2.19548 -79.5018
1.64651 2.19554 -79.5121
1.50974 2.19624 -79.5359
1.37302 2.19719 -79.5646
1.23643 2.19828 -79.6069
1.09969 2.19941 -79.6513
0.962898 2.20103 -79.7091
0.825928 2.20269 -79.7683
0.688873 2.20478 -79.8403
0.551651 2.20695 -79.9139
0.414131 2.20918 -80.0003
0.27623 2.2114 -80.0888
0.138191 2.2143 -80.1919
-0.0001297 2.21732 -80.2973
-0.138954 2.22074 -80.4203
-0.278282 2.22436 -80.5509
-0.417961 2.22838 -80.6964
-0.558365 2.23303 -80.8659
-0.699524 2.23812 -81.0512
-0.841431 2.24353 -81.2464
-0.984039 2.24894 -81.4427
-1.12731 2.2544 -81.6399
-1.27129 2.25987 -81.838
-1.41596 2.26537 -82.0371
-1.56135 2.2709 -82.2372
-1.70746 2.27646 -82.4382
-1.85426 2.28204 -82.6403
-2.0018 2.28765 -82.8433
-2.15007 2.29329 -83.0473
-2.29906 2.29896 -83.2524
-2.44878 2.30465 -83.4584
-2.59926 2.31038 -83.6655
-2.75047 2.31613 -83.8736
-2.90245 2.32191 -84.0828
-3.05518 2.32772 -84.293
-3.20869 2.33355 -84.5042
-3.36296 2.33942 -84.7165
-3.51802 2.34532 -84.9299
-3.67386 2.35125 -85.1444
-3.83046 2.3572 -85.3599
-3.98788 2.36319 -85.5765
-4.1461 2.3692 -85.7943
-4.30512 2.37525 -86.0131
-4.46497 2.38133 -86.2331
-4.62563 2.38744 -86.4542
-4.78711 2.39358 -86.6764
-4.94942 2.39975 -86.8998
-5.11258 2.40596 -87.1243
-5.27658 2.4122 -87.35
-5.44144 2.41847 -87.5769
-5.60715 2.42477 -87.8049
-5.7737 2.4311 -88.0342
-5.94117 2.43747 -88.2646
-6.10949 2.44387 -88.4963
-6.2787 2.45031 -88.7291
-6.44881 2.45678 -88.9632
-6.61981 2.46328 -89.1985
-6.79173 2.46982 -89.4351
-6.96456 2.47639 -89.673
-7.13831 2.48299 -89.9121
-7.31299 2.48964 -90.1525
-7.4886 2.49632 -90.3941
-7.66516 2.50304 -90.6371
-7.84268 2.50978 -90.8814
-8.02113 2.51657 -91.127
-8.20058 2.5234 -91.374
-8.38099 2.53026 -91.6222
-8.56239 2.53716 -91.8719
-8.74477 2.54409 -92.1229
-8.92815 2.55106 -92.3752
-9.11254 2.55808 -92.629
-9.29796 2.56513 -92.8842
-9.48439 2.57223 -93.1407
-9.67186 2.57935 -93.3987
-9.86037 2.58652 -93.6581
-10.0499 2.5937 -93.919
-10.2405 2.60094 -94.1814
-10.4322 2.60822 -94.4452
-10.625 2.61554 -94.7105
-10.8188 2.6229 -94.9772
-11.0138 2.63029 -95.2455
-11.2098 2.63774 -95.5154
-11.407 2.64523 -95.7867
-11.6053 2.65276 -96.0596
-11.8047 2.66032 -96.334
-12.0053 2.66794 -96.6101
-12.207 2.6756 -96.8877
-12.4099 2.6833 -97.1669
-12.6139 2.69104 -97.4477
-12.8191 2.69884 -97.7301
-13.0256 2.70668 -98.0142
-13.2332 2.71455 -98.3
-13.442 2.72248 -98.5874
-13.6521 2.73045 -98.8765
-13.8634 2.73848 -99.1673
-14.0776 2.74672 -99.4719
14.1826 2.73997 -93.3821
13.9677 2.72917 -93.0243
13.766 2.72105 -92.7472
13.5656 2.71297 -92.4717
13.3663 2.70495 -92.1979
13.1682 2.69698 -91.9257
12.9712 2.68905 -91.6551
12.7754 2.68117 -91.3861
12.5808 2.67333 -91.1187
12.3873 2.66555 -90.8528
12.1949 2.6578 -90.5885
12.0036 2.65011 -90.3257
11.8134 2.64245 -90.0644
11.6244 2.63483 -89.8046
11.4364 2.62725 -89.5464
11.2495 2.61971 -89.2896
11.0637 2.61222 -89.0343
10.8789 2.60477 -88.7804
10.6952 2.59737 -88.528
10.5125 2.59 -88.277
10.3308 2.58268 -88.0275
10.1502 2.5754 -87.7793
9.9706 2.56816 -87.5325
9.79201 2.56096 -87.2872
9.6144 2.55379 -87.0431
9.43779 2.54668 -86.8005
9.26216 2.53959 -86.5592
9.0875 2.53255 -86.3192
8.91381 2.52555 -86.0806
8.74109 2.51859 -85.8433
8.56929 2.51167 -85.6073
8.39846 2.50477 -85.3726
8.22855 2.49792 -85.1391
8.05958 2.49111 -84.907
7.8915 2.48433 -84.6761
7.72436 2.4776 -84.4464
7.55812 2.47089 -84.218
7.39277 2.46423 -83.9908
7.2283 2.4576 -83.7649
7.06473 2.451 -83.5401
6.90202 2.44444 -83.3166
6.7402 2.43792 -83.0943
6.57922 2.43143 -82.8731
6.4191 2.42498 -82.6531
6.25984 2.41855 -82.4343
6.10142 2.41216 -82.2166
5.94382 2.4058 -82.0001
5.78706 2.39949 -81.7848
5.63111 2.3932 -81.5705
5.47598 2.38695 -81.3574
5.32166 2.38073 -81.1453
5.16915 2.37506 -80.951
5.01899 2.37012 -80.7811
4.87063 2.3657 -80.6294
4.72365 2.36189 -80.4993
4.57786 2.35832 -80.3796
4.43306 2.35499 -80.2701
4.28927 2.3522 -80.1731
4.14615 2.34973 -80.0812
4.0041 2.34738 -80.0024
3.8625 2.34502 -79.9264
3.72166 2.34317 -79.8636
3.58108 2.34136 -79.8028
3.44133 2.34004 -79.7559
3.3018 2.33881 -79.7105
3.16301 2.3378 -79.6811
3.02448 2.33688 -79.6547
2.88665 2.33681 -79.6443
2.749 2.33677 -79.6386
2.61156 2.33678 -79.6386
2.47411 2.33678 -79.6386
2.33666 2.33677 -79.6387
2.19922 2.33678 -79.6387
2.06178 2.33678 -79.6387
1.92432 2.33678 -79.6387
1.78687 2.33678 -79.6387
1.64941 2.33678 -79.6387
1.51197 2.33688 -79.6486
1.37465 2.33717 -79.6636
1.23766 2.33818 -79.6925
1.10068 2.33926 -79.7275
0.963661 2.34047 -79.7721
0.826523 2.34193 -79.8231
0.689255 2.3437 -79.8825
0.551804 2.34568 -79.948
0.414253 2.34797 -80.0219
0.276474 2.35033 -80.1018
0.138252 2.35271 -80.1905
-0.000244141 2.35544 -80.2867
-0.138916 2.35862 -80.3915
-0.278015 2.36208 -80.5074
-0.417671 2.36572 -80.631
-0.557816 2.36993 -80.7743
-0.698494 2.37453 -80.931
-0.840012 2.37969 -81.1083
-0.982353 2.38543 -81.3038
-1.12538 2.3912 -81.5003
-1.26911 2.397 -81.6978
-1.41354 2.40282 -81.8962
-1.55867 2.40868 -82.0956
-1.70451 2.41456 -82.296
-1.85106 2.42047 -82.4973
-1.99832 2.42641 -82.6996
-2.14632 2.43238 -82.903
-2.29504 2.43838 -83.1073
-2.44451 2.44441 -83.3126
-2.5947 2.45047 -83.519
-2.74565 2.45656 -83.7264
-2.89734 2.46268 -83.9348
-3.0498 2.46883 -84.1442
-3.20301 2.47502 -84.3548
-3.35699 2.48122 -84.5663
-3.51176 2.48746 -84.7789
-3.66729 2.49374 -84.9926
-3.82362 2.50005 -85.2074
-3.98074 2.50638 -85.4232
-4.13865 2.51276 -85.6402
-4.29738 2.51916 -85.8583
-4.4569 2.52559 -86.0774
-4.61726 2.53206 -86.2977
-4.77841 2.53856 -86.5191
-4.94042 2.54509 -86.7417
-5.10326 2.55166 -86.9654
-5.26693 2.55827 -87.1903
-5.43147 2.5649 -87.4163
-5.59685 2.57158 -87.6435
-5.76308 2.57828 -87.8719
-5.93019 2.58502 -88.1015
-6.09818 2.5918 -88.3323
-6.26705 2.5986 -88.5643
-6.4368 2.60546 -88.7976
-6.60747 2.61234 -89.032
-6.77901 2.61926 -89.2677
-6.95148 2.62622 -89.5047
-7.12488 2.63321 -89.7429
-7.29919 2.64024 -89.9824
-7.47443 2.64731 -90.2231
-7.65062 2.65442 -90.4652
-7.82774 2.66156 -90.7085
-8.00584 2.66875 -90.9532
-8.18489 2.67597 -91.1992
-8.36491 2.68324 -91.4465
-8.54593 2.69053 -91.6952
-8.72791 2.69788 -91.9452
-8.9109 2.70525 -92.1966
-9.09487 2.71268 -92.4494
-9.27989 2.72014 -92.7036
-9.4659 2.72765 -92.9592
-9.65295 2.73519 -93.2161
-9.84103 2.74277 -93.4745
-10.0302 2.75039 -93.7344
-10.2204 2.75805 -93.9957
-10.4116 2.76575 -94.2585
-10.6039 2.77349 -94.5227
-10.7973 2.78128 -94.7885
-10.9918 2.78912 -95.0557
-11.1874 2.79699 -95.3244
-11.3841 2.80491 -95.5947
-11.5819 2.81287 -95.8665
-11.7809 2.82089 -96.1398
-11.981 2.82895 -96.4147
-12.1822 2.83705 -96.6912
-12.3846 2.84521 -96.9693
-12.5882 2.8534 -97.249
-12.7929 2.86165 -97.5303
-12.9988 2.86994 -97.8132
-13.206 2.87828 -98.0978
-13.4143 2.88667 -98.384
-13.6238 2.89511 -98.6719
-13.8346 2.90359 -98.9615
-14.0471 2.91219 -99.256
14.1467 2.89369 -93.1453
13.9383 2.88363 -92.8282
13.7371 2.87507 -92.5523
13.5371 2.86655 -92.278
13.3383 2.8581 -92.0053
13.1407 2.84969 -91.7342
12.9443 2.84133 -91.4648
12.749 2.83302 -91.1969
12.5548 2.82475 -90.9305
12.3618 2.81655 -90.6658
12.1698 2.80838 -90.4025
11.979 2.80025 -90.1408
11.7893 2.79218 -89.8806
11.6007 2.78414 -89.6219
11.4132 2.77615 -89.3647
11.2267 2.7682 -89.1089
11.0413 2.7603 -88.8546
10.857 2.75245 -88.6018
10.6737 2.74464 -88.3504
10.4914 2.73687 -88.1004
10.3102 2.72915 -87.8519
10.13 2.72147 -87.6047
9.95082 2.71383 -87.3589
9.77263 2.70624 -87.1145
9.59543 2.69868 -86.8714
9.41923 2.69117 -86.6297
9.24399 2.68371 -86.3894
9.06972 2.67628 -86.1504
8.89642 2.6689 -85.9127
8.72408 2.66156 -85.6763
8.55266 2.65424 -85.4412
8.3822 2.64698 -85.2074
8.21267 2.63976 -84.9748
8.04405 2.63258 -84.7436
7.87637 2.62543 -84.5136
7.70957 2.61832 -84.2848
7.54369 2.61125 -84.0573
7.37869 2.60422 -83.831
7.21459 2.59722 -83.6059
7.05135 2.59027 -83.382
6.889 2.58335 -83.1593
6.7275 2.57647 -82.9378
6.56687 2.56962 -82.7175
6.40707 2.5628 -82.4983
6.24815 2.55604 -82.2803
6.09004 2.5493 -82.0634
5.93277 2.54259 -81.8477
5.77632 2.53593 -81.6331
5.6207 2.5293 -81.4197
5.46609 2.52281 -81.2107
5.31346 2.51698 -81.0211
5.16381 2.51212 -80.8639
5.01543 2.50774 -80.7214
4.86803 2.50367 -80.5911
4.72242 2.50009 -80.479
4.57732 2.49663 -80.3712
4.43348 2.49394 -80.2788
4.29022 2.49137 -80.1903
4.14802 2.48888 -80.1139
4.00626 2.48657 -80.042
3.86516 2.48465 -79.9809
3.72451 2.48287 -79.9248
3.5845 2.48156 -79.8792
3.44494 2.48035 -79.8402
3.30589 2.47928 -79.8109
3.16743 2.47872 -79.7922
3.02933 2.47863 -79.7818
2.89159 2.47861 -79.7805
2.7539 2.47862 -79.7805
2.6162 2.47862 -79.7805
2.47852 2.47862 -79.7805
2.34083 2.47862 -79.7805
2.20314 2.47863 -79.7805
2.06544 2.47863 -79.7805
1.92775 2.47863 -79.7805
1.79004 2.47863 -79.7805
1.65235 2.47863 -79.7805
1.51466 2.47864 -79.7805
1.37697 2.47871 -79.7855
1.23923 2.47881 -79.7959
1.10185 2.47963 -79.8207
0.964516 2.48069 -79.8497
0.827217 2.48196 -79.8932
0.689751 2.48324 -79.9379
0.552193 2.48512 -79.997
0.414421 2.48699 -80.0567
0.276489 2.48938 -80.1301
0.138382 2.49183 -80.2043
-9.15527e-005 2.49438 -80.2925
-0.138947 2.49693 -80.3817
-0.278038 2.50028 -80.4868
-0.417397 2.50373 -80.5947
-0.557396 2.50759 -80.7185
-0.697937 2.51177 -80.8523
-0.838905 2.51632 -80.9989
-0.980766 2.52169 -81.1726
-1.12346 2.52754 -81.3613
-1.26694 2.53366 -81.5581
-1.41111 2.53981 -81.7558
-1.55599 2.54598 -81.9545
-1.70156 2.55219 -82.1542
-1.84787 2.55843 -82.3548
-1.99487 2.56469 -82.5565
-2.1426 2.571 -82.7591
-2.29105 2.57732 -82.9627
-2.44025 2.58369 -83.1673
-2.59016 2.59008 -83.373
-2.74084 2.5965 -83.5796
-2.89225 2.60295 -83.7873
-3.04443 2.60945 -83.996
-3.19736 2.61597 -84.2058
-3.35105 2.62252 -84.4166
-3.50553 2.62911 -84.6285
-3.66077 2.63572 -84.8414
-3.8168 2.64238 -85.0554
-3.97362 2.64907 -85.2705
-4.13124 2.65579 -85.4867
-4.28966 2.66254 -85.7039
-4.44887 2.66933 -85.9223
-4.60892 2.67616 -86.1418
-4.76977 2.68301 -86.3624
-4.93145 2.6899 -86.5842
-5.09396 2.69683 -86.8071
-5.25731 2.7038 -87.0312
-5.42152 2.7108 -87.2564
-5.58658 2.71784 -87.4828
-5.75247 2.72491 -87.7103
-5.91925 2.73203 -87.9391
-6.08691 2.73917 -88.169
-6.25543 2.74636 -88.4001
-6.42484 2.75358 -88.6325
-6.59515 2.76084 -88.8661
-6.76635 2.76814 -89.1009
-6.93847 2.77547 -89.337
-7.11149 2.78286 -89.5743
-7.28544 2.79027 -89.8129
-7.46032 2.79773 -90.0527
-7.63613 2.80523 -90.2939
-7.8129 2.81276 -90.5363
-7.9906 2.82035 -90.7801
-8.16927 2.82796 -91.0251
-8.3489 2.83562 -91.2715
-8.52952 2.84332 -91.5192
-8.71111 2.85106 -91.7683
-8.89371 2.85884 -92.0187
-9.07728 2.86668 -92.2705
-9.26188 2.87455 -92.5237
-9.44748 2.88246 -92.7783
-9.63412 2.89042 -93.0343
-9.82178 2.89842 -93.2917
-10.0105 2.90645 -93.5505
-10.2002 2.91453 -93.8108
-10.3911 2.92265 -94.0725
-10.583 2.93082 -94.3357
-10.7759 2.93904 -94.6004
-10.97 2.9473 -94.8666
-11.1651 2.9556 -95.1342
-11.3614 2.96396 -95.4034
-11.5587 2.97237 -95.6741
-11.7572 2.98081 -95.9464
-11.9568 2.9893 -96.2202
-12.1576 2.99785 -96.4955
-12.3595 3.00645 -96.7725
-12.5626 3.0151 -97.051
-12.7668 3.02379 -97.3312
-12.9722 3.03254 -97.613
-13.1788 3.04133 -97.8964
-13.3867 3.05018 -98.1814
-13.5957 3.05907 -98.4682
-13.806 3.06803 -98.7566
-14.0175 3.07704 -99.0467
-14.2611 3.0929 -99.5554
14.1143 3.04744 -92.9323
13.9089 3.03743 -92.6329
13.7083 3.02844 -92.3581
13.5088 3.0195 -92.085
13.3105 3.0106 -91.8135
13.1134 3.00176 -91.5435
12.9174 2.99298 -91.2752
12.7226 2.98423 -91.0084
12.5289 2.97555 -90.7431
12.3363 2.96692 -90.4794
12.1449 2.95834 -90.2173
11.9546 2.94979 -89.9566
11.7653 2.9413 -89.6975
11.5771 2.93285 -89.4398
11.3901 2.92445 -89.1837
11.2041 2.9161 -88.929
11.0191 2.90779 -88.6757
10.8352 2.89953 -88.4239
10.6523 2.89131 -88.1735
10.4705 2.88315 -87.9245
10.2897 2.87503 -87.6769
10.1099 2.86695 -87.4307
9.93112 2.85893 -87.1859
9.75333 2.85095 -86.9425
9.57655 2.84301 -86.7004
9.40074 2.83511 -86.4597
9.22589 2.82726 -86.2202
9.05202 2.81945 -85.9821
8.8791 2.81168 -85.7454
8.70714 2.80396 -85.5099
8.53611 2.79628 -85.2757
8.36601 2.78865 -85.0428
8.19685 2.78104 -84.8112
8.02861 2.77349 -84.5808
7.86127 2.76598 -84.3517
7.69485 2.7585 -84.1238
7.52932 2.75107 -83.8971
7.36467 2.74368 -83.6717
7.20092 2.73632 -83.4474
7.03802 2.729 -83.2244
6.87601 2.72173 -83.0025
6.71485 2.71449 -82.7819
6.55456 2.70729 -82.5624
6.39511 2.70014 -82.344
6.2365 2.69301 -82.1268
6.07871 2.68592 -81.9108
5.92177 2.67888 -81.6959
5.76564 2.67186 -81.4821
5.6111 2.66531 -81.2813
5.45885 2.65951 -81.1027
5.30892 2.65441 -80.947
5.16055 2.65008 -80.8137
5.01325 2.64595 -80.6889
4.86732 2.64222 -80.5786
4.72222 2.63887 -80.4774
4.57807 2.63606 -80.3848
4.43486 2.6334 -80.3024
4.29232 2.63076 -80.2258
4.15051 2.62857 -80.1598
4.00909 2.62654 -80.0985
3.86843 2.62491 -80.0485
3.72813 2.62352 -80.0028
3.58856 2.62235 -79.9704
3.44924 2.62122 -79.941
3.31087 2.62105 -79.9302
3.17263 2.62097 -79.9228
3.03469 2.62097 -79.9228
2.89676 2.62097 -79.9229
2.75882 2.62098 -79.9229
2.62088 2.62098 -79.9229
2.48294 2.62098 -79.9229
2.345 2.62099 -79.9229
2.20707 2.62098 -79.9229
2.06913 2.62098 -79.9229
1.93119 2.62099 -79.9229
1.79325 2.62099 -79.9229
1.65531 2.62099 -79.9229
1.51736 2.62099 -79.9229
1.37942 2.62099 -79.9229
1.24147 2.62099 -79.9229
1.10351 2.62115 -79.9333
0.965622 2.62152 -79.9494
0.827995 2.62264 -79.9784
0.690376 2.62387 -80.0146
0.552628 2.62524 -80.0595
0.414711 2.62693 -80.1119
0.276657 2.62892 -80.1717
0.138351 2.63118 -80.2387
-7.62939e-005 2.63375 -80.3131
-0.138763 2.63642 -80.3947
-0.277969 2.63912 -80.4841
-0.417465 2.64227 -80.5823
-0.557205 2.64584 -80.6879
-0.697426 2.64978 -80.8062
-0.838257 2.65387 -80.9308
-0.979698 2.6587 -81.0773
-1.12177 2.66396 -81.2382
-1.26478 2.66985 -81.4188
-1.40871 2.67631 -81.6159
-1.55333 2.68281 -81.8139
-1.69865 2.68934 -82.0129
-1.84467 2.6959 -82.2129
-1.99142 2.7025 -82.4138
-2.13888 2.70912 -82.6157
-2.28707 2.71578 -82.8186
-2.43599 2.72248 -83.0225
-2.58565 2.72919 -83.2275
-2.73605 2.73596 -83.4334
-2.88718 2.74274 -83.6403
-3.03908 2.74957 -83.8483
-3.19173 2.75643 -84.0574
-3.34514 2.76332 -84.2674
-3.49931 2.77025 -84.4785
-3.65427 2.77721 -84.6907
-3.81001 2.78421 -84.904
-3.96653 2.79124 -85.1183
-4.12385 2.79831 -85.3337
-4.28196 2.80541 -85.5502
-4.44088 2.81255 -85.7678
-4.6006 2.81973 -85.9865
-4.76115 2.82694 -86.2063
-4.92252 2.83419 -86.4273
-5.08471 2.84148 -86.6494
-5.24773 2.84881 -86.8726
-5.41161 2.85616 -87.097
-5.57634 2.86357 -87.3226
-5.74192 2.871 -87.5493
-5.90836 2.87849 -87.7772
-6.07566 2.88601 -88.0063
-6.24385 2.89356 -88.2366
-6.41293 2.90115 -88.4681
-6.58289 2.90879 -88.7008
-6.75375 2.91647 -88.9347
-6.92548 2.92418 -89.1699
-7.09815 2.93194 -89.4064
-7.27174 2.93974 -89.6441
-7.44627 2.94758 -89.883
-7.62171 2.95547 -90.1232
-7.79809 2.96339 -90.3648
-7.97541 2.97136 -90.6076
-8.15371 2.97937 -90.8517
-8.33296 2.98742 -91.0972
-8.51318 2.99552 -91.3439
-8.69438 3.00366 -91.592
-8.87658 3.01184 -91.8415
-9.05976 3.02007 -92.0923
-9.24395 3.02834 -92.3445
-9.42915 3.03668 -92.5981
-9.61536 3.04504 -92.8531
-9.8026 3.05346 -93.1095
-9.9909 3.0619 -93.3673
-10.1802 3.0704 -93.6266
-10.3706 3.07894 -93.8873
-10.5621 3.08753 -94.1495
-10.7546 3.09617 -94.4131
-10.9482 3.10485 -94.6782
-11.1429 3.11359 -94.9448
-11.3387 3.12238 -95.2129
-11.5356 3.13121 -95.4825
-11.7336 3.14009 -95.7537
-11.9327 3.14903 -96.0264
-12.133 3.15802 -96.3007
-12.3344 3.16705 -96.5765
-12.537 3.17613 -96.8539
-12.7408 3.18528 -97.1329
-12.9457 3.19446 -97.4136
-13.1519 3.20372 -97.6958
-13.3592 3.21302 -97.9797
-13.5677 3.22237 -98.2652
-13.7775 3.23178 -98.5524
-13.9884 3.24125 -98.8414
-14.2168 3.2547 -99.2459
14.0832 3.20072 -92.7275
13.8798 3.1906 -92.4385
13.6796 3.18117 -92.1648
13.4806 3.17179 -91.8928
13.2828 3.16247 -91.6224
13.0862 3.1532 -91.3536
12.8907 3.14399 -91.0864
12.6964 3.13483 -90.8207
12.5032 3.12573 -90.5565
12.3111 3.11667 -90.2939
12.1201 3.10767 -90.0328
11.9302 3.09872 -89.7732
11.7414 3.08981 -89.5152
11.5537 3.08095 -89.2585
11.367 3.07215 -89.0034
11.1815 3.06339 -88.7497
10.9969 3.05468 -88.4975
10.8135 3.04602 -88.2467
10.6311 3.03741 -87.9973
10.4496 3.02885 -87.7493
10.2692 3.02033 -87.5027
10.0899 3.01187 -87.2575
9.9115 3.00345 -87.0137
9.73412 2.99508 -86.7712
9.55772 2.98675 -86.53
9.38231 2.97848 -86.2902
9.20786 2.97025 -86.0518
9.03438 2.96206 -85.8146
8.86185 2.95392 -85.5787
8.69025 2.94582 -85.3442
8.51962 2.93776 -85.1109
8.3499 2.92976 -84.8789
8.18111 2.92179 -84.6481
8.01321 2.91387 -84.4186
7.84624 2.90599 -84.1904
7.68018 2.89815 -83.9634
7.515 2.89035 -83.7376
7.3507 2.8826 -83.513
7.1873 2.87489 -83.2896
7.02475 2.86722 -83.0674
6.86307 2.85959 -82.8464
6.70225 2.852 -82.6265
6.54229 2.84445 -82.4079
6.38317 2.83694 -82.1903
6.22488 2.82947 -81.974
6.06743 2.82204 -81.7587
5.91079 2.81465 -81.5446
5.75637 2.80806 -81.352
5.60468 2.80237 -81.1863
5.45469 2.79728 -81.0376
5.30601 2.79274 -80.9061
5.15894 2.78863 -80.7891
5.0126 2.78469 -80.6785
4.86755 2.78152 -80.5839
4.72308 2.77857 -80.4917
4.57992 2.77582 -80.4148
4.4371 2.77311 -80.3394
4.29517 2.771 -80.2779
4.15353 2.7689 -80.2187
4.01279 2.76739 -80.1727
3.87236 2.76601 -80.1306
3.73265 2.76482 -80.1011
3.59342 2.764 -80.0792
3.45479 2.76387 -80.0687
3.31648 2.76383 -80.0657
3.1783 2.76384 -80.0657
3.04012 2.76384 -80.0657
2.90193 2.76384 -80.0657
2.76375 2.76384 -80.0657
2.62557 2.76384 -80.0657
2.48739 2.76384 -80.0657
2.34919 2.76384 -80.0657
2.21101 2.76385 -80.0657
2.07283 2.76385 -80.0657
1.93464 2.76385 -80.0657
1.79645 2.76385 -80.0657
1.65826 2.76385 -80.0657
1.52008 2.76385 -80.0657
1.38189 2.76385 -80.0657
1.2437 2.76385 -80.0657
1.10551 2.76385 -80.0657
0.967316 2.76398 -80.0712
0.829018 2.7641 -80.0817
0.691048 2.76505 -80.1076
0.553055 2.76622 -80.1368
0.415054 2.76767 -80.1815
0.276863 2.76914 -80.227
0.138504 2.77126 -80.287
-9.91821e-005 2.77337 -80.3475
-0.138901 2.77607 -80.4221
-0.277908 2.77878 -80.4972
-0.417343 2.78168 -80.5868
-0.55719 2.78462 -80.678
-0.697334 2.78836 -80.7839
-0.837784 2.79227 -80.8942
-0.978958 2.79658 -81.019
-1.12075 2.80134 -81.1559
-1.26303 2.80645 -81.3041
-1.40639 2.81256 -81.4816
-1.55066 2.81917 -81.6738
-1.69573 2.82603 -81.8721
-1.84151 2.83291 -82.0714
-1.98799 2.83982 -82.2716
-2.13518 2.84678 -82.4728
-2.28311 2.85376 -82.675
-2.43176 2.86078 -82.8783
-2.58114 2.86783 -83.0825
-2.73126 2.87491 -83.2877
-2.88212 2.88205 -83.4939
-3.03374 2.8892 -83.7012
-3.1861 2.8964 -83.9094
-3.33923 2.90363 -84.1188
-3.49313 2.91089 -84.3291
-3.64779 2.91819 -84.5406
-3.80324 2.92553 -84.7531
-3.95947 2.9329 -84.9666
-4.11648 2.94032 -85.1812
-4.27429 2.94777 -85.397
-4.43291 2.95526 -85.6138
-4.59232 2.96279 -85.8317
-4.75256 2.97035 -86.0508
-4.91361 2.97795 -86.2709
-5.07549 2.9856 -86.4922
-5.23819 2.99328 -86.7146
-5.40175 3.001 -86.9382
-5.56615 3.00876 -87.163
-5.73141 3.01657 -87.3888
-5.89751 3.02441 -87.6159
-6.06448 3.0323 -87.8442
-6.23233 3.04022 -88.0736
-6.40105 3.04818 -88.3042
-6.57065 3.05619 -88.5361
-6.74116 3.06424 -88.7692
-6.91257 3.07233 -89.0035
-7.08488 3.08047 -89.239
-7.25809 3.08865 -89.4758
-7.43225 3.09687 -89.7139
-7.60732 3.10514 -89.9532
-7.78333 3.11345 -90.1938
-7.96029 3.12181 -90.4357
-8.13821 3.1302 -90.6789
-8.31708 3.13865 -90.9235
-8.49692 3.14714 -91.1693
-8.67772 3.15568 -91.4165
-8.85951 3.16426 -91.665
-9.04228 3.17289 -91.9148
-9.22608 3.18157 -92.1661
-9.41086 3.19029 -92.4187
-9.59667 3.19906 -92.6727
-9.78351 3.20789 -92.9281
-9.97137 3.21675 -93.1849
-10.1603 3.22566 -93.4431
-10.3502 3.23462 -93.7028
-10.5412 3.24362 -93.9639
-10.7333 3.25268 -94.2265
-10.9265 3.26178 -94.4906
-11.1207 3.27094 -94.7561
-11.3161 3.28016 -95.0232
-11.5125 3.28942 -95.2917
-11.7101 3.29873 -95.5618
-11.9088 3.3081 -95.8334
-12.1086 3.31752 -96.1066
-12.3095 3.327 -96.3813
-12.5116 3.33652 -96.6576
-12.7149 3.34611 -96.9355
-12.9193 3.35574 -97.2149
-13.125 3.36544 -97.496
-13.3318 3.37519 -97.7788
-13.5398 3.385 -98.0631
-13.749 3.39487 -98.3492
-13.9595 3.40479 -98.6369
-14.182 3.41755 -99.0027
14.0522 3.35329 -92.5236
13.8507 3.34313 -92.2448
13.651 3.33326 -91.9723
13.4526 3.32345 -91.7015
