# .PCD v0.7 - Point Cloud Data file format
VERSION 0.7
FIELDS x y z
SIZE 4 4 4
TYPE F F F
COUNT 1 1 1
WIDTH 160
HEIGHT 1
VIEWPOINT 0 0 0 1 0 0 0
POINTS 160
DATA ascii
-10.86299 -8.4462433 -84.25769
-8.9957037 -8.5105476 -84.248123
-7.0339055 -8.5013857 -84.237633
-5.0160646 -8.5058823 -84.242798
-2.9805501 -8.5058823 -84.242752
-0.99852943 -8.5013914 -84.239029
0.96227014 -8.5102091 -84.246376
2.9806015 -8.5058823 -84.242737
5.016118 -8.5058823 -84.242767
7.0339537 -8.5013857 -84.23764
8.9957333 -8.5105476 -84.2481
10.862994 -8.4462442 -84.257706
-11.613116 -7.0465622 -84.184166
11.613086 -7.0465641 -84.184151
-11.624469 -5.0129714 -84.191277
11.624432 -5.01298 -84.191299
-11.624469 -2.9787016 -84.191277
11.624432 -2.9787059 -84.191299
-11.624468 -1.0170755 -84.191284
11.628587 -0.99165457 -84.195007
-11.624468 0.94454896 -84.191307
11.620378 0.96758491 -84.18766
-11.624469 2.9788282 -84.191299
11.624432 2.978822 -84.191315
-11.624469 5.0131025 -84.19133
11.624433 5.0130911 -84.191299
-11.613116 7.0466795 -84.184189
11.613085 7.0466738 -84.184151
-10.862998 8.4462347 -84.257721
-8.9957342 8.5105219 -84.248131
-7.0339565 8.501359 -84.237633
-5.0161185 8.5058546 -84.24279
-2.9806027 8.5058556 -84.24279
-0.96227145 8.5101824 -84.246384
0.99852818 8.5013628 -84.239014
2.9805484 8.5058527 -84.242775
5.0160632 8.5058556 -84.242775
7.033905 8.501358 -84.237663
8.9957027 8.5105219 -84.248116
10.862989 8.4462318 -84.257706
-10.509425 -8.1174154 -83.989166
-8.9873724 -8.1174011 -83.989006
-7.0304909 -8.1174011 -83.989006
-5.0011277 -8.1174011 -83.989006
-2.9717207 -8.1174011 -83.989006
-0.9423095 -8.1174011 -83.989006
1.0146235 -8.1174011 -83.989006
2.9715571 -8.1174011 -83.989006
5.0009699 -8.1174011 -83.989006
7.0303812 -8.1174011 -83.989006
8.9873171 -8.1174011 -83.989006
10.5094 -8.1174164 -83.989166
-10.717931 -7.0201602 -83.957283
-9.0554361 -7.0271611 -83.95076
-7.0270224 -7.0271544 -83.95079
-4.9986024 -7.0271616 -83.95079
-2.9701838 -7.0271578 -83.950783
-1.0086676 -7.0323105 -83.950836
0.9465937 -7.0223246 -83.95076
2.9701834 -7.0271592 -83.950798
4.998601 -7.0271568 -83.950798
7.0270205 -7.027163 -83.950813
9.0554352 -7.0271554 -83.950813
10.71793 -7.0201621 -83.957275
-10.722537 -4.9990635 -83.957016
-9.055357 -4.9986539 -83.950134
-7.0269613 -4.9986534 -83.950134
-4.9985566 -4.9986525 -83.950134
-2.9701569 -4.998652 -83.950134
-1.0141994 -4.9986525 -83.950134
0.94175744 -4.9986563 -83.950134
2.97016 -4.9986558 -83.950134
4.9985595 -4.9986548 -83.950134
7.0269623 -4.998651 -83.950134
9.0553598 -4.9986501 -83.950134
10.722536 -4.9990635 -83.957016
-10.722534 -2.9704597 -83.957008
-9.055357 -2.9702189 -83.950134
-7.0269613 -2.9702189 -83.950134
-4.9985571 -2.9702179 -83.950134
-2.9701569 -2.9702163 -83.950134
-1.0141994 -2.9702172 -83.950134
0.9417575 -2.9702153 -83.950134
2.9701598 -2.9702172 -83.950134
4.9985595 -2.9702172 -83.950134
7.0269632 -2.9702175 -83.950134
9.0553598 -2.9702199 -83.950134
10.722537 -2.9704587 -83.957016
-10.722535 -0.94186014 -83.957001
-9.0553579 -0.94178289 -83.950134
-7.0269613 -0.94178343 -83.950134
-4.9985571 -0.94178176 -83.950134
-2.9701562 -0.94178325 -83.950134
-1.0141991 -0.94178331 -83.950134
0.94175756 -0.94178325 -83.950134
2.97016 -0.94178253 -83.950134
4.9985604 -0.94178253 -83.950134
7.0269618 -0.94178253 -83.950134
9.0553598 -0.94178319 -83.950134
10.722537 -0.94185996 -83.957008
-10.722535 1.0142916 -83.956993
-9.0553579 1.0142095 -83.950134
-7.0269618 1.0142101 -83.950134
-4.998558 1.0142094 -83.950134
-2.9701571 1.0142093 -83.950134
-1.0141991 1.0142099 -83.950127
0.94175762 1.0142101 -83.950134
2.970161 1.0142097 -83.950134
4.99856 1.0142089 -83.950134
7.0269623 1.0142102 -83.950134
9.0553608 1.0142097 -83.950134
10.722536 1.014292 -83.957001
-10.722539 2.9704397 -83.957024
-9.0553579 2.9701951 -83.950134
-7.0269604 2.9701989 -83.950134
-4.9985566 2.9701967 -83.950134
-2.9701581 2.9701984 -83.950134
-1.0141993 2.9701982 -83.950134
0.94175774 2.9701977 -83.950134
2.9701598 2.9701977 -83.950134
4.99856 2.970196 -83.950134
7.0269618 2.9701977 -83.950134
9.0553598 2.9701958 -83.950134
10.722535 2.9704404 -83.957016
-10.722534 4.9990425 -83.957001
-9.0553589 4.9986382 -83.950134
-7.0269613 4.9986348 -83.950134
-4.9985576 4.9986362 -83.950134
-2.9701569 4.9986396 -83.950134
-1.0141991 4.9986329 -83.950134
0.9417575 4.9986353 -83.950134
2.9701598 4.9986315 -83.950134
4.9985595 4.9986343 -83.950134
7.0269618 4.9986305 -83.950134
9.0553608 4.9986362 -83.950134
10.722535 4.999042 -83.957008
-10.717931 7.0201449 -83.957283
-9.0554333 7.0271392 -83.950783
-7.0270205 7.0271387 -83.95076
-4.9985991 7.0271406 -83.95079
-2.9701812 7.0271444 -83.950798
-1.0142068 7.0271516 -83.950813
0.94176686 7.0271449 -83.950813
2.9701869 7.0271449 -83.950798
4.9986033 7.0271406 -83.950813
7.0270224 7.0271444 -83.95079
9.0554361 7.0271401 -83.950813
10.717933 7.0201473 -83.957283
-10.5094 8.1173954 -83.989166
-8.987319 8.1173792 -83.989006
-7.0303831 8.1173792 -83.989006
-5.0009708 8.1173792 -83.989006
-2.9715593 8.1173792 -83.989006
-1.0146257 8.1173792 -83.989006
0.94230896 8.1173792 -83.989006
2.9717207 8.1173792 -83.989006
5.0011249 8.1173792 -83.989006
7.0304875 8.1173792 -83.989006
8.9873686 8.1173792 -83.989006
10.509413 8.1173954 -83.989166
