ply
format ascii 1.0
element vertex 1756
property float32 x
property float32 y
property float32 z
element face 0
property list uint8 int32 vertex_indices
end_header
-3.50121 -14.1796 -101.431
-3.68735 -14.2224 -101.737
-3.87463 -14.2655 -102.045
-4.06305 -14.3088 -102.355
-4.25261 -14.3524 -102.666
-4.44333 -14.3962 -102.98
-4.63522 -14.4403 -103.296
-4.82829 -14.4847 -103.613
-5.02254 -14.5294 -103.932
-5.21801 -14.5743 -104.254
-5.41467 -14.6195 -104.577
-5.61257 -14.665 -104.902
-5.8117 -14.7108 -105.23
-6.01208 -14.7568 -105.559
-6.21371 -14.8032 -105.891
-6.41662 -14.8498 -106.224
-6.62258 -14.9008 -106.589
11.2214 -14.7172 -106.589
10.9994 -14.6664 -106.222
10.7794 -14.6165 -105.861
10.5607 -14.567 -105.502
10.3436 -14.5178 -105.146
10.1279 -14.4689 -104.792
9.91372 -14.4204 -104.44
9.70093 -14.3721 -104.091
9.48956 -14.3242 -103.744
9.27959 -14.2767 -103.4
9.071 -14.2294 -103.058
8.86381 -14.1824 -102.718
8.65796 -14.1358 -102.38
8.45347 -14.0894 -102.044
8.25031 -14.0434 -101.711
8.04848 -13.9977 -101.38
7.84796 -13.9522 -101.051
7.64874 -13.9071 -100.724
7.45079 -13.8622 -100.399
7.25413 -13.8177 -100.077
7.05872 -13.7734 -99.7559
6.86456 -13.7294 -99.4373
6.67164 -13.6857 -99.1208
6.47994 -13.6422 -98.8062
6.28945 -13.599 -98.4937
6.10017 -13.5561 -98.1831
5.91207 -13.5135 -97.8744
5.72516 -13.4712 -97.5678
5.5394 -13.4291 -97.263
5.35481 -13.3873 -96.9601
5.17136 -13.3457 -96.6591
4.98905 -13.3044 -96.36
4.80786 -13.2634 -96.0627
4.62779 -13.2226 -95.7672
4.44882 -13.182 -95.4736
4.27094 -13.1417 -95.1818
4.09415 -13.1017 -94.8917
3.91843 -13.0619 -94.6034
3.74379 -13.0223 -94.3168
3.57019 -12.983 -94.032
3.39764 -12.9439 -93.7489
3.22612 -12.9051 -93.4675
3.05563 -12.8664 -93.1877
2.88653 -12.8296 -92.9216
2.72067 -12.8028 -92.7267
2.55704 -12.7858 -92.6029
2.39531 -12.7763 -92.5334
2.23532 -12.7729 -92.5095
2.07598 -12.7756 -92.5282
1.91764 -12.784 -92.5894
1.75998 -12.7991 -92.7007
1.60306 -12.8229 -92.8729
1.44625 -12.8558 -93.1104
1.28912 -12.8914 -93.3683
1.1311 -12.9271 -93.6275
0.97221 -12.9631 -93.8882
0.812431 -12.9993 -94.1504
0.65176 -13.0357 -94.414
0.490185 -13.0723 -94.6791
0.327698 -13.1091 -94.9457
0.164299 -13.1461 -95.2138
-3.05176e-005 -13.1833 -95.4834
-0.165295 -13.2208 -95.7545
-0.331493 -13.2584 -96.0272
-0.49865 -13.2963 -96.3015
-0.666759 -13.3344 -96.5773
-0.835835 -13.3727 -96.8547
-1.00589 -13.4112 -97.1337
-1.17692 -13.4499 -97.4143
-1.34893 -13.4889 -97.6966
-1.52197 -13.5281 -97.9804
-1.69599 -13.5675 -98.266
-1.87104 -13.6071 -98.5532
-2.04712 -13.647 -98.8421
-2.22423 -13.6872 -99.1327
-2.40239 -13.7275 -99.425
-2.58159 -13.7682 -99.7191
-2.76186 -13.809 -100.015
-2.9432 -13.8501 -100.312
-3.12564 -13.8914 -100.612
-3.30915 -13.933 -100.913
-3.49378 -13.9748 -101.216
-3.67951 -14.0169 -101.521
-3.86636 -14.0593 -101.827
-4.05435 -14.1019 -102.136
-4.24347 -14.1447 -102.446
-4.43375 -14.1878 -102.758
-4.6252 -14.2312 -103.072
-4.81781 -14.2749 -103.388
-5.01162 -14.3188 -103.706
-5.20662 -14.363 -104.026
-5.40282 -14.4074 -104.348
-5.60025 -14.4522 -104.672
-5.7989 -14.4972 -104.998
-5.99879 -14.5425 -105.326
-6.19994 -14.588 -105.656
-6.40236 -14.6339 -105.988
-6.60605 -14.6801 -106.322
-6.81211 -14.7286 -106.676
11.4165 -14.5473 -106.693
11.194 -14.4976 -106.328
10.973 -14.4482 -105.966
10.7535 -14.3992 -105.607
10.5355 -14.3505 -105.25
10.319 -14.3022 -104.895
10.1039 -14.2541 -104.543
9.89026 -14.2064 -104.193
9.67805 -14.159 -103.846
9.46725 -14.1119 -103.501
9.25785 -14.0652 -103.158
9.04983 -14.0187 -102.817
8.84318 -13.9726 -102.479
8.63788 -13.9267 -102.143
8.43393 -13.8812 -101.809
8.2313 -13.8359 -101.477
8.02999 -13.7909 -101.147
7.83 -13.7463 -100.82
7.63128 -13.7019 -100.494
7.43385 -13.6578 -100.171
7.23768 -13.614 -99.8496
7.04277 -13.5705 -99.5304
6.8491 -13.5272 -99.2133
6.65665 -13.4842 -98.8981
6.46543 -13.4415 -98.585
6.27542 -13.3991 -98.2738
6.0866 -13.3569 -97.9647
5.89896 -13.315 -97.6574
5.7125 -13.2734 -97.352
5.52719 -13.232 -97.0486
5.34305 -13.1909 -96.7471
5.16004 -13.15 -96.4474
4.97815 -13.1094 -96.1496
4.7974 -13.0691 -95.8536
4.61774 -13.029 -95.5594
4.43919 -12.9891 -95.2671
4.26173 -12.9495 -94.9765
4.08535 -12.9101 -94.6876
3.91004 -12.871 -94.4006
3.73578 -12.8321 -94.1152
3.56258 -12.7934 -93.8316
3.39042 -12.755 -93.5497
3.21929 -12.7167 -93.2695
3.04918 -12.6788 -92.991
2.8805 -12.6428 -92.7275
2.71508 -12.6167 -92.5358
2.55183 -12.6003 -92.4143
2.39047 -12.5912 -92.3466
2.23085 -12.5879 -92.3241
2.07183 -12.5908 -92.3439
1.91386 -12.5993 -92.407
1.75653 -12.6143 -92.5189
1.59992 -12.6379 -92.6917
1.44344 -12.6703 -92.929
1.2866 -12.7053 -93.1858
1.12889 -12.7405 -93.444
0.970299 -12.7759 -93.7037
0.810833 -12.8115 -93.9648
0.650475 -12.8473 -94.2274
0.489212 -12.8833 -94.4915
0.327045 -12.9195 -94.757
0.163967 -12.9559 -95.024
-3.05176e-005 -12.9925 -95.2926
-0.164963 -13.0294 -95.5626
-0.330837 -13.0664 -95.8342
-0.497646 -13.1036 -96.1074
-0.665409 -13.1411 -96.3821
-0.834141 -13.1787 -96.6584
-1.00384 -13.2166 -96.9363
-1.17451 -13.2547 -97.2157
-1.34618 -13.293 -97.4968
-1.51884 -13.3316 -97.7795
-1.69251 -13.3703 -98.0639
-1.86719 -13.4093 -98.3499
-2.04288 -13.4486 -98.6376
-2.21962 -13.488 -98.927
-2.39738 -13.5277 -99.2181
-2.57621 -13.5677 -99.511
-2.75608 -13.6078 -99.8055
-2.93703 -13.6482 -100.102
-3.11905 -13.6889 -100.4
-3.30217 -13.7298 -100.7
-3.48637 -13.7709 -101.001
-3.67169 -13.8123 -101.305
-3.85812 -13.8539 -101.61
-4.04568 -13.8958 -101.917
-4.23438 -13.938 -102.226
-4.42422 -13.9803 -102.537
-4.61523 -14.023 -102.85
-4.8074 -14.0659 -103.165
-5.00074 -14.1091 -103.481
-5.19529 -14.1525 -103.8
-5.39103 -14.1963 -104.12
-5.58799 -14.2402 -104.443
-5.78616 -14.2845 -104.767
-5.98558 -14.329 -105.094
-6.18624 -14.3738 -105.422
-6.38816 -14.4189 -105.753
-6.59135 -14.4643 -106.086
-6.79582 -14.51 -106.421
-7.00192 -14.5565 -106.763
11.6123 -14.3776 -106.8
11.3889 -14.3284 -106.435
11.167 -14.2796 -106.072
10.9466 -14.2311 -105.712
10.7278 -14.1829 -105.354
10.5104 -14.1351 -104.999
10.2945 -14.0876 -104.646
10.08 -14.0403 -104.296
9.86692 -13.9935 -103.947
9.65528 -13.9469 -103.602
9.44505 -13.9006 -103.258
9.23621 -13.8547 -102.917
9.02875 -13.809 -102.578
8.82264 -13.7637 -102.241
8.61789 -13.7186 -101.906
8.41447 -13.6738 -101.574
8.21239 -13.6294 -101.243
8.0116 -13.5852 -100.915
7.81211 -13.5413 -100.589
7.61391 -13.4976 -100.265
7.41697 -13.4543 -99.9435
7.22131 -13.4112 -99.6237
7.02689 -13.3685 -99.306
6.8337 -13.3259 -98.9903
6.64174 -13.2837 -98.6765
6.45099 -13.2417 -98.3648
6.26144 -13.2 -98.055
6.07309 -13.1586 -97.7472
5.88591 -13.1174 -97.4413
5.6999 -13.0764 -97.1373
5.51504 -13.0358 -96.8352
5.33133 -12.9954 -96.535
5.14876 -12.9552 -96.2366
4.96731 -12.9153 -95.9401
4.78697 -12.8756 -95.6454
4.60775 -12.8362 -95.3525
4.42961 -12.797 -95.0614
4.25256 -12.758 -94.772
4.07658 -12.7193 -94.4845
3.90167 -12.6809 -94.1986
3.72782 -12.6426 -93.9145
3.555 -12.6046 -93.6321
3.38323 -12.5668 -93.3514
3.21248 -12.5292 -93.0724
3.04275 -12.4919 -92.795
2.87451 -12.4567 -92.5342
2.7095 -12.4314 -92.3457
2.54664 -12.4155 -92.2265
2.38565 -12.4067 -92.1606
2.2264 -12.4038 -92.1396
2.06774 -12.4068 -92.1611
1.91009 -12.4154 -92.2252
1.7531 -12.4303 -92.3378
1.5968 -12.4536 -92.5112
1.44063 -12.4856 -92.7483
1.28408 -12.52 -93.0041
1.12668 -12.5547 -93.2613
0.968399 -12.5895 -93.52
0.809238 -12.6245 -93.7801
0.649189 -12.6597 -94.0416
0.488243 -12.6951 -94.3046
0.326401 -12.7307 -94.5691
0.163643 -12.7665 -94.8351
-3.05176e-005 -12.8025 -95.1025
-0.164635 -12.8387 -95.3715
-0.33017 -12.8751 -95.642
-0.496647 -12.9117 -95.9141
-0.66407 -12.9486 -96.1877
-0.832455 -12.9856 -96.4629
-1.0018 -13.0228 -96.7396
-1.17213 -13.0603 -97.0179
-1.34344 -13.098 -97.2979
-1.51574 -13.1359 -97.5795
-1.68903 -13.174 -97.8627
-1.86334 -13.2123 -98.1475
-2.03867 -13.2509 -98.434
-2.21502 -13.2897 -98.7222
-2.39241 -13.3288 -99.0121
-2.57084 -13.368 -99.3037
-2.75032 -13.4075 -99.5971
-2.93088 -13.4472 -99.8921
-3.1125 -13.4872 -100.189
-3.2952 -13.5274 -100.488
-3.479 -13.5679 -100.788
-3.66391 -13.6085 -101.09
-3.84992 -13.6495 -101.394
-4.03705 -13.6907 -101.7
-4.22532 -13.7321 -102.008
-4.41473 -13.7738 -102.317
-4.60529 -13.8157 -102.629
-4.79702 -13.8579 -102.942
-4.98992 -13.9003 -103.257
-5.184 -13.943 -103.574
-5.37929 -13.986 -103.893
-5.57578 -14.0293 -104.215
-5.77348 -14.0728 -104.538
-5.97242 -14.1165 -104.863
-6.1726 -14.1606 -105.19
-6.37402 -14.2049 -105.519
-6.57672 -14.2495 -105.85
-6.78069 -14.2944 -106.184
-6.98595 -14.3396 -106.519
-7.19252 -14.385 -106.857
12.0462 -14.2703 -107.38
11.8084 -14.2075 -106.907
11.5842 -14.1589 -106.541
11.3614 -14.1106 -106.178
11.1402 -14.0626 -105.817
10.9204 -14.015 -105.459
10.7022 -13.9677 -105.103
10.4854 -13.9207 -104.749
10.2701 -13.874 -104.398
10.0562 -13.8276 -104.049
9.84368 -13.7815 -103.703
9.63262 -13.7358 -103.358
9.42296 -13.6903 -103.016
9.21468 -13.6452 -102.677
9.00777 -13.6003 -102.339
8.80221 -13.5557 -102.004
8.598 -13.5114 -101.671
8.39511 -13.4675 -101.34
8.19354 -13.4238 -101.011
7.99328 -13.3803 -100.685
7.7943 -13.3372 -100.36
7.59661 -13.2943 -100.038
7.40018 -13.2517 -99.7172
7.20501 -13.2094 -99.3988
7.01108 -13.1674 -99.0825
6.81837 -13.1256 -98.7682
6.62689 -13.0841 -98.4559
6.43661 -13.0428 -98.1456
6.24753 -13.0018 -97.8372
6.05964 -12.9611 -97.5307
5.87292 -12.9206 -97.2262
5.68735 -12.8804 -96.9235
5.50294 -12.8404 -96.6227
5.31967 -12.8007 -96.3238
5.13753 -12.7612 -96.0268
4.95651 -12.722 -95.7315
4.7766 -12.683 -95.4381
4.59779 -12.6442 -95.1465
4.42007 -12.6057 -94.8566
4.24343 -12.5674 -94.5685
4.06786 -12.5294 -94.2822
3.89334 -12.4916 -93.9976
3.71988 -12.454 -93.7147
3.54747 -12.4166 -93.4334
3.37607 -12.3795 -93.1539
3.20571 -12.3425 -92.8761
3.03635 -12.3058 -92.5999
2.86853 -12.2714 -92.3417
2.70395 -12.2469 -92.1563
2.54147 -12.2315 -92.0395
2.38088 -12.2232 -91.976
2.22198 -12.2205 -91.9568
2.06366 -12.2236 -91.9792
1.90634 -12.2322 -92.0442
1.74968 -12.2469 -92.1574
1.59369 -12.2701 -92.3314
1.43783 -12.3016 -92.5682
1.28158 -12.3355 -92.823
1.12448 -12.3695 -93.0793
0.966499 -12.4038 -93.3369
0.807648 -12.4382 -93.596
0.647911 -12.4728 -93.8565
0.487286 -12.5076 -94.1185
0.325748 -12.5426 -94.3819
0.163315 -12.5778 -94.6468
-3.05176e-005 -12.6132 -94.9132
-0.164307 -12.6488 -95.1812
-0.329506 -12.6846 -95.4506
-0.495647 -12.7206 -95.7215
-0.662735 -12.7568 -95.994
-0.830772 -12.7932 -96.2681
-0.999775 -12.8299 -96.5437
-1.16975 -12.8667 -96.821
-1.3407 -12.9037 -97.0998
-1.51264 -12.941 -97.3802
-1.68557 -12.9785 -97.6622
-1.85952 -13.0162 -97.9459
-2.03447 -13.0541 -98.2312
-2.21044 -13.0922 -98.5182
-2.38745 -13.1306 -98.807
-2.5655 -13.1692 -99.0974
-2.74459 -13.208 -99.3895
-2.92475 -13.2471 -99.6833
-3.10598 -13.2864 -99.9789
-3.28828 -13.3259 -100.276
-3.47167 -13.3657 -100.575
-3.65615 -13.4057 -100.876
-3.84175 -13.4459 -101.179
-4.02846 -13.4864 -101.483
-4.2163 -13.5271 -101.79
-4.40528 -13.5681 -102.098
-4.5954 -13.6093 -102.408
-4.78668 -13.6507 -102.72
-4.97913 -13.6925 -103.034
-5.17277 -13.7345 -103.35
-5.36759 -13.7767 -103.668
-5.56361 -13.8192 -103.987
-5.76085 -13.8619 -104.309
-5.95931 -13.905 -104.633
-6.15901 -13.9483 -104.958
-6.35995 -13.9918 -105.286
-6.56215 -14.0357 -105.616
-6.76563 -14.0798 -105.948
-6.97039 -14.1242 -106.282
-7.17643 -14.1688 -106.618
-7.38379 -14.2138 -106.956
-7.59988 -14.2732 -107.404
12.2367 -14.0908 -107.424
12.005 -14.0371 -107.015
11.7798 -13.9891 -106.648
11.5562 -13.9413 -106.284
11.3341 -13.8939 -105.923
11.1135 -13.8467 -105.564
10.8943 -13.7999 -105.207
10.6767 -13.7534 -104.853
10.4605 -13.7073 -104.501
10.2458 -13.6614 -104.151
10.0325 -13.6158 -103.804
9.82055 -13.5706 -103.459
9.61007 -13.5256 -103.116
9.40097 -13.481 -102.776
9.19325 -13.4366 -102.438
8.98688 -13.3925 -102.102
8.78187 -13.3488 -101.768
8.5782 -13.3052 -101.437
8.37584 -13.262 -101.107
8.17479 -13.2191 -100.78
7.97505 -13.1764 -100.455
7.77658 -13.134 -100.132
7.5794 -13.0919 -99.8108
7.38346 -13.0501 -99.4919
7.18878 -13.0085 -99.175
6.99534 -12.9672 -98.8601
6.80312 -12.9261 -98.5472
6.61211 -12.8853 -98.2363
6.4223 -12.8448 -97.9273
6.23368 -12.8045 -97.6203
6.04625 -12.7645 -97.3152
5.85997 -12.7247 -97.012
5.67486 -12.6852 -96.7106
5.49089 -12.6459 -96.4112
5.30806 -12.6069 -96.1136
5.12635 -12.5681 -95.8178
4.94576 -12.5295 -95.5239
4.76627 -12.4912 -95.2317
4.58788 -12.4531 -94.9413
4.41057 -12.4153 -94.6527
4.23433 -12.3776 -94.3659
4.05916 -12.3402 -94.0808
3.88504 -12.3031 -93.7974
3.71198 -12.2661 -93.5156
3.53995 -12.2294 -93.2356
3.36895 -12.1929 -92.9573
3.19896 -12.1566 -92.6806
3.02998 -12.1205 -92.4056
2.86259 -12.0869 -92.15
2.69842 -12.0631 -91.9677
2.53632 -12.0482 -91.8532
2.37614 -12.0404 -91.7927
2.21757 -12.0379 -91.7747
2.0596 -12.0411 -91.7981
1.90261 -12.0496 -91.8639
1.74627 -12.0643 -91.9777
1.59059 -12.0873 -92.1523
1.43504 -12.1183 -92.3889
1.27909 -12.1516 -92.6427
1.12229 -12.1851 -92.8979
0.964611 -12.2188 -93.1546
0.806065 -12.2526 -93.4126
0.646645 -12.2866 -93.6721
0.48632 -12.3209 -93.9331
0.325108 -12.3553 -94.1955
0.162994 -12.3899 -94.4594
-3.05176e-005 -12.4247 -94.7247
-0.163975 -12.4597 -94.9916
-0.32885 -12.4949 -95.2599
-0.494656 -12.5303 -95.5298
-0.6614 -12.5659 -95.8012
-0.829098 -12.6017 -96.0742
-0.997753 -12.6377 -96.3487
-1.16738 -12.6739 -96.6248
-1.33797 -12.7103 -96.9025
-1.50956 -12.7469 -97.1817
-1.68213 -12.7837 -97.4626
-1.8557 -12.8208 -97.7451
-2.03028 -12.8581 -98.0293
-2.20589 -12.8956 -98.3151
-2.38251 -12.9333 -98.6027
-2.56018 -12.9712 -98.8918
-2.73888 -13.0094 -99.1827
-2.91865 -13.0478 -99.4753
-3.09948 -13.0864 -99.7697
-3.28138 -13.1252 -100.066
-3.46436 -13.1643 -100.364
-3.64844 -13.2036 -100.663
-3.83361 -13.2432 -100.965
-4.01991 -13.2829 -101.268
-4.20732 -13.323 -101.573
-4.39587 -13.3632 -101.88
-4.58555 -13.4037 -102.189
-4.77639 -13.4445 -102.499
-4.9684 -13.4855 -102.812
-5.16158 -13.5268 -103.126
-5.35595 -13.5683 -103.443
-5.55151 -13.61 -103.761
-5.74828 -13.6521 -104.081
-5.94627 -13.6943 -104.404
-6.14548 -13.7369 -104.728
-6.34594 -13.7797 -105.054
-6.54765 -13.8228 -105.383
-6.75064 -13.8661 -105.713
-6.95489 -13.9097 -106.045
-7.16042 -13.9536 -106.38
-7.36727 -13.9978 -106.717
-7.57542 -14.0422 -107.056
-7.78804 -14.0927 -107.441
12.4327 -13.9174 -107.517
12.202 -13.8664 -107.123
11.9759 -13.8189 -106.755
11.7514 -13.7716 -106.391
11.5284 -13.7247 -106.028
11.3069 -13.6781 -105.668
11.0869 -13.6319 -105.311
10.8684 -13.5859 -104.956
10.6513 -13.5402 -104.603
10.4357 -13.4949 -104.253
10.2216 -13.4498 -103.905
10.0089 -13.4051 -103.56
9.79753 -13.3606 -103.216
9.58762 -13.3165 -102.875
9.37908 -13.2726 -102.537
9.17191 -13.229 -102.2
8.96609 -13.1857 -101.866
8.76162 -13.1427 -101.534
8.55848 -13.1 -101.204
8.35665 -13.0575 -100.876
8.15613 -13.0154 -100.55
7.9569 -12.9735 -100.226
7.75894 -12.9318 -99.9046
7.56226 -12.8904 -99.5851
7.36682 -12.8493 -99.2676
7.17263 -12.8085 -98.9521
6.97967 -12.7679 -98.6386
6.78793 -12.7276 -98.3271
6.59739 -12.6875 -98.0176
6.40805 -12.6477 -97.71
6.2199 -12.6081 -97.4043
6.03292 -12.5687 -97.1006
5.84709 -12.5297 -96.7987
5.66242 -12.4908 -96.4987
5.47889 -12.4522 -96.2006
5.2965 -12.4139 -95.9043
5.11522 -12.3758 -95.6098
4.93505 -12.3379 -95.3171
4.75599 -12.3002 -95.0262
4.578 -12.2628 -94.7371
4.4011 -12.2256 -94.4497
4.22528 -12.1887 -94.1641
4.05051 -12.1519 -93.8802
3.87679 -12.1154 -93.598
3.70412 -12.0791 -93.3175
3.53247 -12.043 -93.0387
3.36185 -12.0071 -92.7615
3.19224 -11.9714 -92.4859
3.02364 -11.936 -92.2121
2.85666 -11.9031 -91.9591
2.69291 -11.88 -91.78
2.53123 -11.8659 -91.6691
2.37143 -11.8583 -91.6101
2.21319 -11.856 -91.5933
2.05555 -11.8593 -91.6177
1.89889 -11.8678 -91.6842
1.74288 -11.8824 -91.7988
1.5875 -11.9051 -91.9739
1.43227 -11.9358 -92.2102
1.27662 -11.9685 -92.4631
1.1201 -12.0014 -92.7173
0.962734 -12.0345 -92.973
0.804493 -12.0677 -93.23
0.64537 -12.1012 -93.4885
0.485363 -12.1348 -93.7484
0.324467 -12.1687 -94.0098
0.162674 -12.2027 -94.2726
-3.8147e-005 -12.2369 -94.5369
-0.163654 -12.2713 -94.8027
-0.328197 -12.3059 -95.07
-0.493664 -12.3407 -95.3388
-0.660076 -12.3757 -95.6091
-0.827435 -12.4108 -95.881
-0.995743 -12.4462 -96.1544
-1.16502 -12.4818 -96.4294
-1.33527 -12.5176 -96.7059
-1.50648 -12.5536 -96.9841
-1.6787 -12.5898 -97.2638
-1.85191 -12.6262 -97.5452
-2.02612 -12.6629 -97.8282
-2.20135 -12.6997 -98.1129
-2.37759 -12.7368 -98.3992
-2.55488 -12.774 -98.6872
-2.7332 -12.8115 -98.9769
-2.91257 -12.8493 -99.2683
-3.09301 -12.8872 -99.5614
-3.27451 -12.9254 -99.8562
-3.45709 -12.9638 -100.153
-3.64075 -13.0024 -100.451
-3.82552 -13.0413 -100.751
-4.01138 -13.0804 -101.053
-4.19838 -13.1197 -101.357
-4.3865 -13.1593 -101.663
-4.57574 -13.1991 -101.97
-4.76615 -13.2391 -102.279
-4.95771 -13.2794 -102.591
-5.15044 -13.32 -102.904
-5.34435 -13.3607 -103.219
-5.53945 -13.4018 -103.536
-5.73576 -13.4431 -103.855
-5.93328 -13.4846 -104.176
-6.13202 -13.5264 -104.498
-6.33199 -13.5685 -104.823
-6.53321 -13.6108 -105.15
-6.7357 -13.6534 -105.479
-6.93945 -13.6962 -105.81
-7.14449 -13.7394 -106.143
-7.35082 -13.7828 -106.478
-7.55846 -13.8264 -106.816
-7.76741 -13.8704 -107.155
-7.9793 -13.9171 -107.518
12.6294 -13.7442 -107.613
12.3994 -13.6953 -107.231
12.1724 -13.6483 -106.863
11.947 -13.6016 -106.497
11.7231 -13.5553 -106.134
11.5007 -13.5092 -105.774
11.2798 -13.4634 -105.416
11.0604 -13.418 -105.06
10.8425 -13.3729 -104.707
10.6261 -13.328 -104.356
10.4111 -13.2835 -104.007
10.1975 -13.2393 -103.661
9.98538 -13.1953 -103.317
9.77463 -13.1517 -102.975
9.56527 -13.1083 -102.636
9.35729 -13.0652 -102.298
9.15067 -13.0224 -101.963
8.9454 -12.9799 -101.631
8.74147 -12.9377 -101.3
8.53886 -12.8957 -100.971
8.33755 -12.854 -100.645
8.13755 -12.8126 -100.321
7.93883 -12.7714 -99.9986
7.74138 -12.7305 -99.6785
7.54519 -12.6899 -99.3604
7.35025 -12.6495 -99.0443
7.15655 -12.6094 -98.7303
6.96407 -12.5695 -98.4182
6.77281 -12.5299 -98.1081
6.58274 -12.4905 -97.7999
6.39387 -12.4514 -97.4937
6.20618 -12.4125 -97.1894
6.01964 -12.3739 -96.8869
5.83427 -12.3355 -96.5864
5.65005 -12.2973 -96.2877
5.46695 -12.2594 -95.9909
5.28499 -12.2218 -95.6959
5.10414 -12.1843 -95.4026
4.92439 -12.1471 -95.1112
4.74574 -12.1101 -94.8216
4.56817 -12.0733 -94.5337
4.39169 -12.0368 -94.2476
4.21626 -12.0005 -93.9632
4.04189 -11.9644 -93.6805
3.86857 -11.9285 -93.3995
3.69629 -11.8928 -93.1201
3.52503 -11.8574 -92.8425
3.35478 -11.8221 -92.5665
3.18555 -11.7871 -92.2921
3.01732 -11.7522 -92.0194
2.85076 -11.7201 -91.769
2.68743 -11.6978 -91.5929
2.52617 -11.6843 -91.4858
2.36673 -11.677 -91.4283
2.20882 -11.6748 -91.4127
2.05152 -11.6782 -91.438
1.89518 -11.6868 -91.5053
1.7395 -11.7012 -91.6205
1.58442 -11.7237 -91.7962
1.4295 -11.7539 -92.0322
1.27414 -11.7861 -92.2841
1.11793 -11.8184 -92.5374
0.960857 -11.8509 -92.792
0.802925 -11.8836 -93.0481
0.644108 -11.9165 -93.3056
0.484413 -11.9495 -93.5645
0.32383 -11.9828 -93.8248
0.162346 -12.0162 -94.0866
-3.43323e-005 -12.0498 -94.3499
-0.163322 -12.0836 -94.6146
-0.327545 -12.1176 -94.8808
-0.492683 -12.1518 -95.1486
-0.658756 -12.1862 -95.4178
-0.825775 -12.2208 -95.6886
-0.993744 -12.2556 -95.9609
-1.16267 -12.2905 -96.2348
-1.33256 -12.3257 -96.5102
-1.50343 -12.3611 -96.7872
-1.67528 -12.3967 -97.0659
-1.84813 -12.4324 -97.3461
-2.02197 -12.4684 -97.6279
-2.19683 -12.5046 -97.9114
-2.3727 -12.541 -98.1965
-2.5496 -12.5777 -98.4834
-2.72754 -12.6145 -98.7718
-2.90652 -12.6516 -99.062
-3.08656 -12.6889 -99.3539
-3.26767 -12.7264 -99.6476
-3.44984 -12.7641 -99.9429
-3.6331 -12.8021 -100.24
-3.81745 -12.8403 -100.539
-4.0029 -12.8787 -100.84
-4.18947 -12.9173 -101.142
-4.37716 -12.9562 -101.446
-4.56598 -12.9953 -101.753
-4.75595 -13.0346 -102.061
-4.94707 -13.0742 -102.37
-5.13935 -13.1141 -102.682
-5.33281 -13.1541 -102.996
-5.52745 -13.1944 -103.311
-5.72329 -13.235 -103.629
-5.92034 -13.2758 -103.948
-6.11861 -13.3169 -104.27
-6.3181 -13.3582 -104.593
-6.51885 -13.3998 -104.919
-6.72083 -13.4416 -105.246
-6.92408 -13.4837 -105.576
-7.12862 -13.5261 -105.907
-7.33445 -13.5687 -106.241
-7.54157 -13.6116 -106.577
-7.75 -13.6548 -106.915
-7.95976 -13.6982 -107.255
-8.17158 -13.743 -107.607
12.8266 -13.5707 -107.71
12.5972 -13.5239 -107.339
12.3693 -13.4775 -106.97
12.1429 -13.4313 -106.604
11.9182 -13.3855 -106.24
11.6949 -13.3399 -105.879
11.4731 -13.2947 -105.52
11.2529 -13.2498 -105.164
11.0341 -13.2052 -104.81
10.8168 -13.1609 -104.458
10.601 -13.1168 -104.109
10.3866 -13.0731 -103.762
10.1736 -13.0297 -103.417
9.962 -12.9865 -103.075
9.75183 -12.9437 -102.735
9.54303 -12.9011 -102.397
9.33561 -12.8588 -102.061
9.12954 -12.8168 -101.728
8.92481 -12.775 -101.397
8.72141 -12.7335 -101.067
8.51932 -12.6923 -100.74
8.31855 -12.6514 -100.416
8.11905 -12.6107 -100.093
7.92084 -12.5703 -99.772
7.7239 -12.5301 -99.4533
7.52821 -12.4902 -99.1367
7.33376 -12.4505 -98.822
7.14054 -12.4111 -98.5094
6.94854 -12.372 -98.1987
6.75775 -12.3331 -97.89
6.56815 -12.2944 -97.5832
6.37975 -12.256 -97.2783
6.19251 -12.2178 -96.9753
6.00643 -12.1799 -96.6742
5.8215 -12.1422 -96.375
5.63771 -12.1047 -96.0776
5.45506 -12.0675 -95.7821
5.27353 -12.0305 -95.4884
5.09311 -11.9937 -95.1964
4.91378 -11.9571 -94.9063
4.73555 -11.9208 -94.6179
4.55839 -11.8847 -94.3312
4.38231 -11.8488 -94.0463
4.20728 -11.8131 -93.7631
4.03331 -11.7776 -93.4816
3.86038 -11.7424 -93.2018
3.68848 -11.7074 -92.9236
3.5176 -11.6725 -92.6472
3.34775 -11.6379 -92.3723
3.17889 -11.6035 -92.0991
3.01103 -11.5693 -91.8275
2.84489 -11.5379 -91.5796
2.68196 -11.5162 -91.4066
2.52112 -11.5034 -91.3032
2.36205 -11.4964 -91.2471
2.20446 -11.4944 -91.2327
2.04751 -11.4978 -91.259
1.89149 -11.5064 -91.3271
1.73614 -11.5207 -91.4429
1.58136 -11.543 -91.6192
1.42675 -11.5727 -91.855
1.27168 -11.6043 -92.1059
1.11577 -11.6361 -92.3582
0.958992 -11.6681 -92.6118
0.801353 -11.7002 -92.8669
0.642849 -11.7325 -93.1234
0.483463 -11.765 -93.3813
0.323189 -11.7977 -93.6406
0.162029 -11.8305 -93.9014
-3.8147e-005 -11.8635 -94.1636
-0.163002 -11.8968 -94.4273
-0.326889 -11.9302 -94.6924
-0.491703 -11.9637 -94.9591
-0.65744 -11.9975 -95.2273
-0.82412 -12.0315 -95.497
-0.991745 -12.0657 -95.7682
-1.16032 -12.1 -96.041
-1.32987 -12.1346 -96.3153
-1.50038 -12.1693 -96.5912
-1.67188 -12.2043 -96.8687
-1.84436 -12.2395 -97.1478
-2.01784 -12.2748 -97.4285
-2.19232 -12.3104 -97.7108
-2.36782 -12.3461 -97.9948
-2.54435 -12.3821 -98.2804
-2.7219 -12.4183 -98.5677
-2.90049 -12.4548 -98.8567
-3.08014 -12.4914 -99.1474
-3.26085 -12.5282 -99.4398
-3.44262 -12.5653 -99.7339
-3.62548 -12.6026 -100.03
-3.80943 -12.6401 -100.327
-3.99446 -12.6778 -100.627
-4.18061 -12.7158 -100.928
-4.36787 -12.754 -101.231
-4.55626 -12.7924 -101.536
-4.7458 -12.831 -101.843
-4.93647 -12.8699 -102.151
-5.12831 -12.909 -102.462
-5.32131 -12.9484 -102.774
-5.51551 -12.988 -103.088
-5.71088 -13.0278 -103.404
-5.90746 -13.0679 -103.722
-6.10526 -13.1082 -104.042
-6.30428 -13.1488 -104.364
-6.50453 -13.1897 -104.688
-6.70603 -13.2307 -105.014
-6.90879 -13.2721 -105.343
-7.11282 -13.3137 -105.673
-7.31813 -13.3556 -106.005
-7.52475 -13.3977 -106.339
-7.73267 -13.4401 -106.676
-7.9419 -13.4828 -107.014
-8.15247 -13.5257 -107.355
-8.36438 -13.5689 -107.698
13.0257 -13.3984 -107.82
12.7953 -13.3522 -107.448
12.5665 -13.3062 -107.078
12.3393 -13.2606 -106.711
12.1136 -13.2153 -106.347
11.8895 -13.1703 -105.985
11.6668 -13.1256 -105.625
11.4457 -13.0812 -105.268
11.2261 -13.0371 -104.913
11.0079 -12.9934 -104.561
10.7912 -12.9499 -104.211
10.576 -12.9066 -103.863
10.3621 -12.8637 -103.518
10.1497 -12.8211 -103.175
9.93874 -12.7787 -102.834
9.72913 -12.7366 -102.496
9.52089 -12.6948 -102.159
9.31402 -12.6533 -101.825
9.10849 -12.6121 -101.493
8.9043 -12.5711 -101.164
8.70144 -12.5303 -100.836
8.49987 -12.4899 -100.511
8.29962 -12.4497 -100.187
8.10064 -12.4097 -99.8658
7.90294 -12.37 -99.5465
7.70649 -12.3306 -99.2292
7.5113 -12.2914 -98.914
7.31734 -12.2525 -98.6008
7.1246 -12.2138 -98.2895
6.93308 -12.1754 -97.9802
6.74277 -12.1371 -97.6728
6.55363 -12.0992 -97.3674
6.36569 -12.0614 -97.0639
6.1789 -12.024 -96.7622
5.99327 -11.9867 -96.4624
5.80878 -11.9497 -96.1645
5.62544 -11.9129 -95.8685
5.44323 -11.8763 -95.5742
5.26212 -11.84 -95.2817
5.08212 -11.8039 -94.9911
4.90321 -11.768 -94.7022
4.7254 -11.7323 -94.415
4.54865 -11.6968 -94.1296
4.37297 -11.6616 -93.8459
4.19835 -11.6265 -93.5639
4.02477 -11.5917 -93.2836
3.85223 -11.5571 -93.0049
3.68071 -11.5227 -92.728
3.51022 -11.4885 -92.4526
3.34074 -11.4544 -92.1789
3.17225 -11.4206 -91.9069
3.00476 -11.387 -91.6364
2.83903 -11.3564 -91.3911
2.67656 -11.3356 -91.2227
2.5161 -11.3232 -91.1213
2.35739 -11.3165 -91.0667
2.20013 -11.3147 -91.0535
2.04351 -11.3182 -91.0807
1.88781 -11.3267 -91.1496
1.73279 -11.3409 -91.266
1.57831 -11.3629 -91.4428
1.42401 -11.3922 -91.6784
1.26923 -11.4233 -91.9283
1.11361 -11.4545 -92.1796
0.95713 -11.4859 -92.4323
0.799797 -11.5175 -92.6864
0.641594 -11.5492 -92.9419
0.482521 -11.5811 -93.1988
0.322556 -11.6132 -93.4571
0.161709 -11.6455 -93.7168
-3.43323e-005 -11.678 -93.978
-0.162678 -11.7106 -94.2406
-0.326244 -11.7434 -94.5048
-0.490723 -11.7764 -94.7704
-0.656132 -11.8096 -95.0375
-0.822472 -11.843 -95.3061
-0.989761 -11.8765 -95.5762
-1.15799 -11.9103 -95.8479
-1.32719 -11.9442 -96.1212
-1.49735 -11.9784 -96.396
-1.66848 -12.0127 -96.6723
-1.84061 -12.0472 -96.9503
-2.01373 -12.082 -97.2298
-2.18785 -12.1169 -97.511
-2.36297 -12.1521 -97.7938
-2.53911 -12.1874 -98.0782
-2.71629 -12.223 -98.3644
-2.8945 -12.2587 -98.6522
-3.07376 -12.2947 -98.9416
-3.25407 -12.3309 -99.2328
-3.43544 -12.3673 -99.5257
-3.61789 -12.4039 -99.8204
-3.80142 -12.4408 -100.117
-3.98605 -12.4778 -100.415
-4.17178 -12.5151 -100.715
-4.35862 -12.5526 -101.017
-4.54659 -12.5903 -101.32
-4.73568 -12.6283 -101.626
-4.92592 -12.6665 -101.933
-5.11731 -12.7049 -102.242
-5.30987 -12.7435 -102.553
-5.50361 -12.7824 -102.866
-5.69852 -12.8216 -103.18
-5.89465 -12.8609 -103.497
-6.09196 -12.9005 -103.816
-6.29051 -12.9404 -104.136
-6.49028 -12.9805 -104.459
-6.69129 -13.0208 -104.784
-6.89357 -13.0614 -105.11
-7.0971 -13.1023 -105.439
-7.30191 -13.1434 -105.77
-7.50801 -13.1848 -106.103
-7.71541 -13.2264 -106.438
-7.92412 -13.2683 -106.775
-8.13416 -13.3104 -107.114
-8.34554 -13.3529 -107.455
-8.55826 -13.3956 -107.799
-8.78522 -13.4586 -108.306
13.4924 -13.305 -108.581
13.2252 -13.2258 -107.929
12.9939 -13.1801 -107.556
12.7642 -13.1347 -107.186
12.5361 -13.0896 -106.818
12.3095 -13.0448 -106.453
12.0844 -13.0004 -106.09
11.8609 -12.9562 -105.73
11.6389 -12.9124 -105.372
11.4184 -12.8688 -105.017
11.1994 -12.8255 -104.664
10.9818 -12.7825 -104.313
10.7657 -12.7398 -103.965
10.5511 -12.6974 -103.619
10.3378 -12.6553 -103.275
10.126 -12.6135 -102.934
9.91559 -12.5719 -102.595
9.70654 -12.5306 -102.258
9.49886 -12.4895 -101.923
9.29253 -12.4488 -101.59
9.08755 -12.4083 -101.26
8.88389 -12.368 -100.932
8.68156 -12.3281 -100.606
8.48052 -12.2884 -100.282
8.28078 -12.2489 -99.9597
8.08231 -12.2097 -99.6398
7.88511 -12.1707 -99.3219
7.68917 -12.132 -99.0061
7.49446 -12.0935 -98.6923
7.30099 -12.0553 -98.3805
7.10874 -12.0173 -98.0706
6.91769 -11.9796 -97.7627
6.72784 -11.9421 -97.4567
6.53918 -11.9048 -97.1526
6.35168 -11.8678 -96.8504
6.16535 -11.831 -96.5501
5.98017 -11.7944 -96.2516
5.79613 -11.758 -95.955
5.61322 -11.7219 -95.6602
5.43143 -11.686 -95.3672
5.25076 -11.6503 -95.076
5.07117 -11.6149 -94.7866
4.89269 -11.5796 -94.4989
4.71528 -11.5446 -94.213
4.53895 -11.5098 -93.9288
4.36367 -11.4752 -93.6463
4.18945 -11.4408 -93.3655
4.01626 -11.4065 -93.0864
3.84411 -11.3726 -92.8089
3.67298 -11.3388 -92.5331
3.50286 -11.3052 -92.2589
3.33376 -11.2718 -91.9864
3.16565 -11.2386 -91.7154
2.99852 -11.2056 -91.4461
2.83321 -11.1756 -91.2033
2.67118 -11.1557 -91.0397
2.51109 -11.1437 -90.9401
2.35275 -11.1373 -90.887
2.1958 -11.1356 -90.8749
2.03953 -11.1392 -90.9031
1.88414 -11.1477 -90.9727
1.72945 -11.1618 -91.0898
1.57527 -11.1836 -91.2672
1.42127 -11.2125 -91.5025
1.26679 -11.243 -91.7514
1.11146 -11.2736 -92.0018
0.955276 -11.3045 -92.2535
0.798248 -11.3355 -92.5066
0.640347 -11.3667 -92.7611
0.481579 -11.398 -93.0169
0.321926 -11.4296 -93.2743
0.161392 -11.4612 -93.533
-3.43323e-005 -11.4931 -93.7932
-0.162357 -11.5252 -94.0548
-0.3256 -11.5574 -94.3179
-0.48975 -11.5898 -94.5824
-0.654827 -11.6224 -94.8485
-0.820831 -11.6552 -95.116
-0.987782 -11.6882 -95.3851
-1.15567 -11.7213 -95.6557
-1.32452 -11.7546 -95.9278
-1.49433 -11.7882 -96.2015
-1.66512 -11.8219 -96.4767
-1.83688 -11.8558 -96.7535
-2.00963 -11.8899 -97.032
-2.18338 -11.9242 -97.312
-2.35814 -11.9587 -97.5936
-2.53391 -11.9935 -97.8769
-2.7107 -12.0284 -98.1619
-2.88852 -12.0635 -98.4485
-3.06739 -12.0988 -98.7368
-3.24731 -12.1344 -99.0268
-3.42828 -12.1701 -99.3184
-3.61034 -12.2061 -99.6119
-3.79346 -12.2423 -99.907
-3.97767 -12.2787 -100.204
-4.16299 -12.3153 -100.503
-4.3494 -12.3521 -100.803
-4.53695 -12.3891 -101.105
-4.72561 -12.4264 -101.409
-4.91541 -12.4639 -101.715
-5.10637 -12.5016 -102.023
-5.29848 -12.5396 -102.333
-5.49176 -12.5778 -102.644
-5.68623 -12.6162 -102.958
-5.88188 -12.6548 -103.273
-6.07874 -12.6937 -103.59
-6.27679 -12.7328 -103.91
-6.4761 -12.7722 -104.231
-6.67662 -12.8118 -104.554
-6.8784 -12.8517 -104.879
-7.08144 -12.8918 -105.206
-7.28575 -12.9322 -105.536
-7.49133 -12.9728 -105.867
-7.69822 -13.0136 -106.201
-7.90641 -13.0548 -106.536
-8.11592 -13.0962 -106.874
-8.32677 -13.1378 -107.214
-8.53896 -13.1797 -107.556
-8.75251 -13.2219 -107.9
-8.97299 -13.2726 -108.315
13.67 -13.1084 -108.501
13.4251 -13.0528 -108.039
13.1929 -13.0076 -107.665
12.9623 -12.9628 -107.294
12.7332 -12.9182 -106.926
12.5057 -12.874 -106.56
12.2798 -12.8301 -106.196
12.0554 -12.7865 -105.835
11.8325 -12.7431 -105.477
11.6111 -12.7001 -105.121
11.3913 -12.6574 -104.767
11.1728 -12.6149 -104.416
10.9559 -12.5727 -104.067
10.7404 -12.5308 -103.72
10.5263 -12.4892 -103.376
10.3137 -12.4479 -103.034
10.1024 -12.4068 -102.694
9.89254 -12.366 -102.356
9.68405 -12.3255 -102.021
9.47692 -12.2852 -101.688
9.27114 -12.2452 -101.357
9.0667 -12.2055 -101.028
8.86357 -12.166 -100.701
8.66177 -12.1267 -100.376
8.46126 -12.0878 -100.054
8.26203 -12.049 -99.7333
8.06407 -12.0105 -99.4148
7.86737 -11.9723 -99.0984
7.67192 -11.9343 -98.784
7.47771 -11.8965 -98.4716
7.28472 -11.859 -98.1612
7.09295 -11.8217 -97.8527
6.90236 -11.7847 -97.5461
6.71299 -11.7479 -97.2415
6.52478 -11.7113 -96.9387
6.33775 -11.6749 -96.6379
6.15186 -11.6388 -96.3388
5.96712 -11.6029 -96.0417
5.78353 -11.5672 -95.7464
5.60105 -11.5318 -95.4529
5.4197 -11.4965 -95.1611
5.23944 -11.4615 -94.8712
5.06029 -11.4267 -94.583
4.88222 -11.3921 -94.2966
4.70522 -11.3577 -94.0119
4.52929 -11.3235 -93.7289
4.35441 -11.2895 -93.4476
4.18058 -11.2557 -93.168
4.00779 -11.2222 -92.89
3.83603 -11.1888 -92.6137
3.66528 -11.1556 -92.3391
3.49555 -11.1226 -92.0661
3.32681 -11.0898 -91.7946
3.15907 -11.0572 -91.5248
2.99231 -11.0248 -91.2566
2.8274 -10.9956 -91.0163
2.66582 -10.9766 -90.8574
2.50611 -10.965 -90.7597
2.34813 -10.9588 -90.708
2.19151 -10.9573 -90.6971
2.03556 -10.961 -90.7262
1.8805 -10.9694 -90.7966
1.72612 -10.9834 -90.9142
1.57224 -11.0049 -91.0922
1.41855 -11.0334 -91.3272
1.26435 -11.0633 -91.5753
1.10932 -11.0935 -91.8246
0.953438 -11.1237 -92.0754
0.7967 -11.1542 -92.3275
0.639103 -11.1848 -92.581
0.480637 -11.2156 -92.8359
0.321297 -11.2466 -93.0922
0.161076 -11.2777 -93.3499
-4.19617e-005 -11.309 -93.609
-0.162045 -11.3405 -93.8696
-0.324955 -11.3721 -94.1317
-0.488781 -11.404 -94.3952
-0.65353 -11.436 -94.6602
-0.819195 -11.4682 -94.9267
-0.985806 -11.5005 -95.1947
-1.15336 -11.5331 -95.4642
-1.32186 -11.5658 -95.7352
-1.49133 -11.5987 -96.0078
-1.66176 -11.6319 -96.2819
-1.83316 -11.6652 -96.5576
-2.00555 -11.6987 -96.8349
-2.17894 -11.7324 -97.1138
-2.35332 -11.7662 -97.3943
-2.52871 -11.8003 -97.6764
-2.70513 -11.8346 -97.9602
-2.88257 -11.8691 -98.2456
-3.06105 -11.9038 -98.5327
-3.24058 -11.9387 -98.8215
-3.42117 -11.9738 -99.112
-3.60281 -12.0091 -99.4042
-3.78552 -12.0446 -99.6981
-3.96934 -12.0803 -99.9938
-4.15423 -12.1163 -100.291
-4.34023 -12.1524 -100.59
-4.52734 -12.1888 -100.891
-4.71558 -12.2254 -101.194
-4.90495 -12.2622 -101.499
-5.09547 -12.2992 -101.805
-5.28714 -12.3365 -102.114
-5.47997 -12.374 -102.424
-5.67397 -12.4117 -102.736
-5.86917 -12.4496 -103.05
-6.06556 -12.4878 -103.366
-6.26316 -12.5262 -103.684
-6.46197 -12.5649 -104.003
-6.66201 -12.6037 -104.325
-6.8633 -12.6429 -104.649
-7.06585 -12.6822 -104.975
-7.26966 -12.7218 -105.303
-7.47474 -12.7617 -105.633
-7.68112 -12.8018 -105.965
-7.88879 -12.8422 -106.299
-8.09778 -12.8828 -106.635
-8.30809 -12.9237 -106.973
-8.51974 -12.9648 -107.314
-8.73275 -13.0062 -107.656
-8.94712 -13.0479 -108.001
-9.16508 -13.0927 -108.375
13.8648 -12.9281 -108.558
13.6255 -12.8794 -108.149
13.3923 -12.8348 -107.774
13.1607 -12.7905 -107.403
12.9308 -12.7465 -107.033
12.7024 -12.7028 -106.667
12.4755 -12.6595 -106.303
12.2502 -12.6164 -105.941
12.0265 -12.5736 -105.582
11.8042 -12.5311 -105.225
11.5835 -12.4889 -104.87
11.3642 -12.4469 -104.518
11.1464 -12.4053 -104.169
10.9301 -12.3639 -103.821
10.7151 -12.3228 -103.476
10.5017 -12.282 -103.134
10.2896 -12.2414 -102.793
10.0789 -12.2011 -102.455
9.8696 -12.1611 -102.119
9.66167 -12.1213 -101.785
9.45509 -12.0818 -101.453
9.24986 -12.0425 -101.124
9.04595 -12.0035 -100.796
8.84336 -11.9648 -100.471
8.64207 -11.9263 -100.148
8.44207 -11.8881 -99.827
8.24335 -11.8501 -99.5079
8.0459 -11.8123 -99.1909
7.8497 -11.7748 -98.8759
7.65475 -11.7375 -98.5629
7.46102 -11.7004 -98.2519
7.26852 -11.6636 -97.9428
7.07722 -11.627 -97.6357
6.88712 -11.5907 -97.3305
6.69819 -11.5545 -97.0272
6.51045 -11.5186 -96.7258
6.32386 -11.483 -96.4262
6.13843 -11.4475 -96.1285
5.95414 -11.4123 -95.8327
5.77098 -11.3773 -95.5386
5.58894 -11.3424 -95.2464
5.40801 -11.3079 -94.9559
5.22818 -11.2735 -94.6673
5.04944 -11.2393 -94.3803
4.87178 -11.2054 -94.0951
4.69519 -11.1716 -93.8116
4.51966 -11.138 -93.5298
4.34519 -11.1047 -93.2497
4.17176 -11.0715 -92.9713
3.99935 -11.0386 -92.6945
3.82797 -11.0058 -92.4194
3.65761 -10.9732 -92.1459
3.48825 -10.9409 -91.874
3.31989 -10.9087 -91.6037
3.15252 -10.8767 -91.335
2.98611 -10.8449 -91.0679
2.82163 -10.8164 -90.83
2.66048 -10.7982 -90.6758
2.50115 -10.7869 -90.5799
2.34352 -10.781 -90.5297
2.18722 -10.7797 -90.5199
2.03161 -10.7834 -90.5499
1.87686 -10.7918 -90.6211
1.72281 -10.8056 -90.7394
1.56923 -10.827 -90.9178
1.41584 -10.855 -91.1527
1.26193 -10.8844 -91.3997
1.10719 -10.914 -91.6482
0.951595 -10.9437 -91.8979
0.795158 -10.9736 -92.1491
0.637867 -11.0037 -92.4016
0.479706 -11.0339 -92.6555
0.320667 -11.0643 -92.9108
0.160763 -11.0949 -93.1675
-3.8147e-005 -11.1256 -93.4257
-0.161724 -11.1565 -93.6852
-0.324318 -11.1876 -93.9462
-0.487816 -11.2188 -94.2087
-0.652237 -11.2503 -94.4726
-0.817577 -11.2819 -94.7381
-0.983845 -11.3137 -95.005
-1.15105 -11.3456 -95.2734
-1.31921 -11.3778 -95.5434
-1.48833 -11.4101 -95.8149
-1.65841 -11.4426 -96.0879
-1.82946 -11.4753 -96.3625
-2.00149 -11.5082 -96.6387
-2.1745 -11.5412 -96.9165
-2.34853 -11.5745 -97.1958
-2.52354 -11.608 -97.4768
-2.69958 -11.6416 -97.7594
-2.87664 -11.6755 -98.0436
-3.05474 -11.7095 -98.3296
-3.23388 -11.7438 -98.6171
-3.41407 -11.7782 -98.9064
-3.59531 -11.8129 -99.1974
-3.77763 -11.8478 -99.4901
-3.96103 -11.8828 -99.7845
-4.14552 -11.9181 -100.081
-4.3311 -11.9536 -100.379
-4.51778 -11.9893 -100.678
-4.70559 -12.0252 -100.98
-4.89454 -12.0613 -101.283
-5.08461 -12.0977 -101.588
-5.27583 -12.1343 -101.895
-5.46822 -12.171 -102.204
-5.66177 -12.2081 -102.515
-5.85651 -12.2453 -102.828
-6.05243 -12.2828 -103.142
-6.24957 -12.3205 -103.459
-6.44791 -12.3584 -103.777
-6.64748 -12.3966 -104.097
-6.84828 -12.435 -104.42
-7.05033 -12.4736 -104.744
-7.25364 -12.5125 -105.071
-7.45822 -12.5516 -105.399
-7.66409 -12.591 -105.73
-7.87125 -12.6306 -106.062
-8.07971 -12.6704 -106.397
-8.2895 -12.7106 -106.734
-8.50062 -12.7509 -107.073
-8.71308 -12.7916 -107.414
-8.9269 -12.8325 -107.757
-9.14209 -12.8736 -108.102
-9.35986 -12.9164 -108.464
14.0668 -12.754 -108.672
13.8262 -12.7057 -108.259
13.5921 -12.6616 -107.884
13.3596 -12.6179 -107.511
13.1287 -12.5745 -107.141
12.8994 -12.5313 -106.774
12.6717 -12.4885 -106.409
12.4455 -12.4459 -106.047
12.2208 -12.4037 -105.687
11.9977 -12.3617 -105.329
11.7761 -12.32 -104.974
11.556 -12.2786 -104.621
11.3373 -12.2375 -104.271
11.1201 -12.1966 -103.923
10.9044 -12.1561 -103.577
10.69 -12.1157 -103.234
10.4771 -12.0757 -102.893
10.2656 -12.0359 -102.554
10.0555 -11.9964 -102.217
9.84677 -11.9571 -101.883
9.63939 -11.9181 -101.55
9.43336 -11.8793 -101.22
9.22866 -11.8408 -100.892
9.02529 -11.8026 -100.566
8.82323 -11.7646 -100.242
8.62246 -11.7268 -99.9208
8.42298 -11.6893 -99.6012
8.22478 -11.652 -99.2836
8.02782 -11.6149 -98.968
7.83213 -11.5781 -98.6544
7.63765 -11.5415 -98.3428
7.44442 -11.5052 -98.0332
7.25239 -11.4691 -97.7255
7.06157 -11.4332 -97.4197
6.87193 -11.3975 -97.1158
6.68347 -11.362 -96.8139
6.49619 -11.3268 -96.5138
6.31004 -11.2918 -96.2155
6.12506 -11.257 -95.9191
5.94121 -11.2225 -95.6246
5.75848 -11.1881 -95.3318
5.57687 -11.1539 -95.0408
5.39637 -11.12 -94.7516
5.21696 -11.0863 -94.4641
5.03864 -11.0527 -94.1784
4.86139 -11.0194 -93.8944
4.68521 -10.9863 -93.6122
4.51008 -10.9534 -93.3316
4.33601 -10.9206 -93.0527
4.16297 -10.8881 -92.7754
3.99095 -10.8557 -92.4998
3.81995 -10.8236 -92.2258
3.64997 -10.7916 -91.9535
3.48099 -10.7599 -91.6827
3.313 -10.7283 -91.4135
3.14599 -10.6969 -91.1459
2.97995 -10.6656 -90.8799
2.81587 -10.6378 -90.6446
2.65516 -10.6204 -90.495
2.4962 -10.6096 -90.4009
2.33893 -10.6039 -90.3521
2.18295 -10.6027 -90.3435
2.02767 -10.6065 -90.3744
1.87324 -10.6149 -90.4463
1.7195 -10.6286 -90.5652
1.56622 -10.6497 -90.7442
1.41314 -10.6772 -90.9788
1.25952 -10.7061 -91.2249
1.10506 -10.7352 -91.4724
0.949764 -10.7644 -91.7212
0.793625 -10.7937 -91.9713
0.636631 -10.8232 -92.2229
0.478771 -10.8529 -92.4758
0.320042 -10.8827 -92.7301
0.160446 -10.9128 -92.9858
-3.43323e-005 -10.9429 -93.243
-0.161404 -10.9733 -93.5015
-0.323681 -11.0038 -93.7615
-0.486855 -11.0344 -94.023
-0.650944 -11.0653 -94.2859
-0.815952 -11.0963 -94.5502
-0.981888 -11.1275 -94.8161
-1.14876 -11.1589 -95.0835
-1.31657 -11.1904 -95.3523
-1.48534 -11.2222 -95.6228
-1.65507 -11.2541 -95.8947
-1.82577 -11.2862 -96.1682
-1.99744 -11.3184 -96.4432
-2.17009 -11.3509 -96.7199
-2.34374 -11.3836 -96.9981
-2.5184 -11.4164 -97.2779
-2.69407 -11.4494 -97.5594
-2.87075 -11.4826 -97.8425
-3.04845 -11.5161 -98.1272
-3.2272 -11.5497 -98.4136
-3.407 -11.5835 -98.7017
-3.58785 -11.6175 -98.9915
-3.76976 -11.6517 -99.283
-3.95276 -11.6861 -99.5762
-4.13683 -11.7208 -99.8711
-4.322 -11.7556 -100.168
-4.50827 -11.7906 -100.466
-4.69565 -11.8259 -100.767
-4.88416 -11.8613 -101.069
-5.0738 -11.897 -101.372
-5.26459 -11.9329 -101.678
-5.45652 -11.969 -101.986
-5.64962 -12.0053 -102.295
-5.84391 -12.0419 -102.606
-6.03938 -12.0786 -102.92
-6.23604 -12.1156 -103.235
-6.43391 -12.1528 -103.552
-6.63299 -12.1903 -103.871
-6.83332 -12.228 -104.192
-7.03488 -12.2659 -104.515
-7.23769 -12.304 -104.84
-7.44177 -12.3424 -105.167
-7.64713 -12.381 -105.496
-7.85378 -12.4199 -105.827
-8.06172 -12.459 -106.16
-8.27099 -12.4984 -106.495
-8.48157 -12.538 -106.833
-8.6935 -12.5778 -107.172
-8.90678 -12.618 -107.514
-9.12142 -12.6583 -107.858
-9.33744 -12.699 -108.204
-9.55497 -12.74 -108.554
14.0273 -12.5316 -108.369
13.7923 -12.4881 -107.993
13.5589 -12.445 -107.62
13.3271 -12.4021 -107.249
13.0968 -12.3595 -106.881
12.8682 -12.3172 -106.516
12.6411 -12.2752 -106.152
12.4156 -12.2335 -105.792
12.1916 -12.192 -105.434
11.9691 -12.1509 -105.078
11.7481 -12.11 -104.724
11.5286 -12.0694 -104.373
11.3105 -12.029 -104.025
11.0939 -11.989 -103.678
10.8788 -11.9492 -103.334
10.665 -11.9096 -102.992
10.4527 -11.8704 -102.653
10.2418 -11.8313 -102.315
10.0322 -11.7926 -101.98
9.82404 -11.7541 -101.647
9.61721 -11.7158 -101.317
9.41173 -11.6778 -100.988
9.20757 -11.64 -100.661
9.00473 -11.6025 -100.337
8.80319 -11.5652 -100.015
8.60294 -11.5282 -99.6946
8.40397 -11.4914 -99.3764
8.20627 -11.4548 -99.0602
8.00982 -11.4185 -98.746
7.81461 -11.3823 -98.4339
7.62064 -11.3465 -98.1237
7.42788 -11.3108 -97.8154
7.23633 -11.2754 -97.5091
7.04598 -11.2402 -97.2047
6.8568 -11.2052 -96.9021
6.66881 -11.1704 -96.6015
6.48198 -11.1358 -96.3027
6.29629 -11.1015 -96.0058
6.11175 -11.0674 -95.7107
5.92833 -11.0335 -95.4174
5.74604 -10.9998 -95.1259
5.56487 -10.9662 -94.8361
5.38478 -10.9329 -94.5482
5.2058 -10.8999 -94.2619
5.02789 -10.867 -93.9775
4.85105 -10.8343 -93.6947
4.67527 -10.8018 -93.4136
4.50055 -10.7695 -93.1342
4.32687 -10.7373 -92.8564
4.15421 -10.7054 -92.5804
3.98259 -10.6737 -92.3059
3.81197 -10.6421 -92.0331
3.64237 -10.6108 -91.7618
3.47375 -10.5796 -91.4922
3.30613 -10.5486 -91.2242
3.13949 -10.5178 -90.9577
2.97382 -10.4872 -90.6927
2.8102 -10.4603 -90.4619
2.64987 -10.4434 -90.3149
2.49127 -10.4329 -90.2226
2.33436 -10.4275 -90.1752
2.1787 -10.4265 -90.1677
2.02375 -10.4303 -90.1995
1.86963 -10.4387 -90.2722
1.71622 -10.4522 -90.3917
1.56323 -10.4731 -90.5712
1.41045 -10.5002 -90.8055
1.25711 -10.5285 -91.0507
1.10294 -10.557 -91.2972
0.947941 -10.5857 -91.5451
0.792095 -10.6145 -91.7943
0.635403 -10.6435 -92.0449
0.477844 -10.6726 -92.2968
0.319424 -10.7019 -92.5501
0.160133 -10.7313 -92.8049
-3.8147e-005 -10.761 -93.061
-0.161091 -10.7907 -93.3185
-0.323048 -10.8207 -93.5775
-0.485901 -10.8508 -93.8379
-0.649662 -10.8811 -94.0998
-0.814335 -10.9115 -94.3631
-0.979946 -10.9421 -94.628
-1.14647 -10.9729 -94.8943
-1.31395 -11.0039 -95.1621
-1.48237 -11.035 -95.4314
-1.65175 -11.0663 -95.7022
-1.82209 -11.0978 -95.9746
-1.99341 -11.1295 -96.2486
-2.1657 -11.1613 -96.5241
-2.33899 -11.1934 -96.8012
-2.51328 -11.2256 -97.0799
-2.68856 -11.258 -97.3602
-2.86486 -11.2906 -97.6421
-3.04219 -11.3234 -97.9257
-3.22055 -11.3564 -98.2109
-3.39996 -11.3896 -98.4978
-3.58042 -11.423 -98.7864
-3.76194 -11.4565 -99.0767
-3.94452 -11.4903 -99.3687
-4.12818 -11.5243 -99.6624
-4.31293 -11.5584 -99.9578
-4.49879 -11.5928 -100.255
-4.68575 -11.6274 -100.554
-4.87383 -11.6622 -100.855
-5.06304 -11.6972 -101.157
-5.25338 -11.7324 -101.462
-5.44488 -11.7678 -101.768
-5.63754 -11.8034 -102.076
-5.83136 -11.8393 -102.386
-6.02637 -11.8754 -102.698
-6.22256 -11.9116 -103.012
-6.41997 -11.9482 -103.327
-6.61858 -11.9849 -103.645
-6.81842 -12.0219 -103.965
-7.01949 -12.0591 -104.286
-7.22181 -12.0965 -104.61
-7.4254 -12.1341 -104.935
-7.63025 -12.172 -105.263
-7.83639 -12.2102 -105.592
-8.04382 -12.2485 -105.924
-8.25256 -12.2871 -106.258
-8.46261 -12.326 -106.594
-8.674 -12.3651 -106.932
-8.88674 -12.4044 -107.272
-9.10083 -12.444 -107.615
-9.3163 -12.4839 -107.959
-9.53315 -12.524 -108.306
-9.75139 -12.5644 -108.655
14.2633 -12.3867 -108.742
13.9929 -12.3143 -108.103
13.7585 -12.2716 -107.729
13.5258 -12.2293 -107.358
13.2947 -12.1873 -106.989
13.0651 -12.1455 -106.622
12.8372 -12.1041 -106.259
12.6107 -12.0629 -105.897
12.3858 -12.022 -105.538
12.1625 -11.9814 -105.182
11.9406 -11.941 -104.828
11.7202 -11.9009 -104.476
11.5013 -11.8611 -104.126
11.2839 -11.8216 -103.779
11.0679 -11.7823 -103.435
10.8533 -11.7433 -103.092
10.6402 -11.7045 -102.752
10.4284 -11.666 -102.414
10.218 -11.6277 -102.078
10.009 -11.5897 -101.745
9.80142 -11.552 -101.413
9.59514 -11.5144 -101.084
9.39019 -11.4772 -100.757
9.18657 -11.4401 -100.432
8.98425 -11.4033 -100.109
8.78324 -11.3668 -99.7882
8.58351 -11.3305 -99.4694
8.38505 -11.2944 -99.1526
8.18785 -11.2585 -98.8379
7.9919 -11.2229 -98.5251
7.79719 -11.1874 -98.2143
7.6037 -11.1523 -97.9055
7.41142 -11.1173 -97.5986
7.22034 -11.0825 -97.2936
7.03046 -11.048 -96.9905
6.84175 -11.0137 -96.6894
6.65422 -10.9796 -96.39
6.46782 -10.9457 -96.0926
6.28259 -10.912 -95.7969
6.09849 -10.8785 -95.5031
5.91551 -10.8453 -95.2111
5.73366 -10.8122 -94.9208
5.55291 -10.7794 -94.6324
5.37325 -10.7467 -94.3456
5.19468 -10.7142 -94.0606
5.01718 -10.682 -93.7773
4.84075 -10.6499 -93.4957
4.66537 -10.618 -93.2158
4.49105 -10.5863 -92.9376
4.31776 -10.5548 -92.661
4.14549 -10.5235 -92.3861
3.97425 -10.4924 -92.1128
3.80402 -10.4614 -91.8411
3.63479 -10.4307 -91.571
3.46655 -10.4001 -91.3025
3.2993 -10.3697 -91.0356
3.13302 -10.3394 -90.7702
2.96771 -10.3094 -90.5064
2.80457 -10.2835 -90.2802
2.64459 -10.2671 -90.1355
2.48636 -10.257 -90.045
2.32981 -10.2519 -89.999
2.17447 -10.2509 -89.9926
2.01984 -10.2548 -90.0253
1.86604 -10.2631 -90.0988
1.71294 -10.2765 -90.2188
1.56024 -10.2971 -90.3988
1.40776 -10.3238 -90.6329
1.25472 -10.3516 -90.8772
1.10084 -10.3796 -91.1228
0.946129 -10.4077 -91.3697
0.790577 -10.436 -91.618
0.634178 -10.4644 -91.8676
0.476925 -10.493 -92.1185
0.31881 -10.5218 -92.3709
0.159824 -10.5506 -92.6246
-4.19617e-005 -10.5797 -92.8797
-0.160778 -10.6089 -93.1363
-0.322414 -10.6383 -93.3942
-0.484943 -10.6678 -93.6536
-0.648384 -10.6976 -93.9145
-0.812729 -10.7274 -94.1768
-0.978001 -10.7575 -94.4406
-1.1442 -10.7877 -94.7058
-1.31133 -10.8181 -94.9725
-1.47941 -10.8486 -95.2408
-1.64845 -10.8793 -95.5106
-1.81843 -10.9102 -95.7819
-1.9894 -10.9413 -96.0547
-2.16133 -10.9725 -96.3291
-2.33425 -11.004 -96.6051
-2.50816 -11.0356 -96.8827
-2.68308 -11.0674 -97.1618
-2.85902 -11.0994 -97.4426
-3.03596 -11.1315 -97.725
-3.21394 -11.1639 -98.0091
-3.39296 -11.1964 -98.2948
-3.57302 -11.2292 -98.5822
-3.75414 -11.2621 -98.8712
-3.93631 -11.2953 -99.162
-4.11958 -11.3286 -99.4545
-4.30392 -11.3621 -99.7487
-4.48936 -11.3958 -100.045
-4.67589 -11.4297 -100.342
-4.86355 -11.4639 -100.642
-5.05232 -11.4982 -100.943
-5.24223 -11.5327 -101.246
-5.43328 -11.5675 -101.551
-5.62549 -11.6024 -101.858
-5.81887 -11.6376 -102.167
-6.01342 -11.673 -102.477
-6.20916 -11.7086 -102.79
-6.40608 -11.7444 -103.104
-6.60423 -11.7804 -103.42
-6.80359 -11.8167 -103.738
-7.00418 -11.8531 -104.059
-7.20601 -11.8898 -104.381
-7.4091 -11.9268 -104.705
-7.61345 -11.9639 -105.031
-7.81907 -12.0013 -105.359
-8.02599 -12.039 -105.689
-8.23421 -12.0768 -106.022
-8.44374 -12.1149 -106.356
-8.65459 -12.1533 -106.693
-8.86679 -12.1919 -107.031
-9.08034 -12.2307 -107.372
-9.29525 -12.2698 -107.715
-9.51154 -12.3091 -108.06
-9.72923 -12.3487 -108.408
-9.94831 -12.3885 -108.758
-10.1774 -12.4391 -109.203
14.2108 -12.1538 -108.341
13.9586 -12.098 -107.838
13.7249 -12.0562 -107.466
13.4929 -12.0147 -107.097
13.2625 -11.9735 -106.729
13.0336 -11.9326 -106.365
12.8063 -11.892 -106.003
12.5805 -11.8516 -105.643
