# .PCD v0.7 - Point Cloud Data file format
VERSION 0.7
FIELDS x y z
SIZE 4 4 4
TYPE F F F
COUNT 1 1 1
WIDTH 216
HEIGHT 1
VIEWPOINT 0 0 0 1 0 0 0
POINTS 216
DATA ascii
-10.555084 -16.0308 -91.964897
-9.047246 -16.030798 -91.964897
-6.9838953 -16.030798 -91.964897
-4.9998593 -16.030798 -91.964897
-3.0158124 -16.030798 -91.964897
-0.95240545 -16.030798 -91.964897
1.0316406 -16.030798 -91.964897
3.015686 -16.030798 -91.964897
4.999733 -16.030798 -91.964897
6.9837785 -16.030798 -91.964897
9.0471869 -16.030798 -91.964897
10.555067 -16.0308 -91.964897
-10.914963 -14.85252 -91.266998
-8.9720497 -14.87497 -91.200684
-7.0044928 -14.874968 -91.200722
-5.0369349 -14.874969 -91.200737
-2.9906745 -14.874982 -91.200768
-0.96927202 -14.860095 -91.198608
0.99548829 -14.890226 -91.202927
2.9906962 -14.874973 -91.200691
5.0369515 -14.874956 -91.200745
7.0045037 -14.874971 -91.200661
8.9720545 -14.874973 -91.200752
10.914968 -14.852512 -91.267006
-10.950373 -12.983401 -91.234764
-8.9671488 -12.978474 -91.150131
-7.00067 -12.978481 -91.150108
-5.0341897 -12.978471 -91.150131
-2.9890473 -12.978476 -91.150131
-0.94391006 -12.978466 -91.150131
1.0225689 -12.978475 -91.150108
2.9890466 -12.978478 -91.150131
5.0341878 -12.978475 -91.150131
7.000668 -12.978475 -91.150108
8.9671488 -12.978476 -91.150131
10.950372 -12.983402 -91.234741
-10.938098 -11.015431 -91.229164
-8.9671497 -11.012042 -91.150146
-7.000669 -11.012048 -91.150131
-5.0341897 -11.012039 -91.150146
-2.9890473 -11.012052 -91.150146
-0.94390994 -11.012035 -91.150146
1.0225692 -11.012039 -91.150131
2.9890461 -11.012042 -91.150146
5.0341883 -11.01205 -91.150146
7.0006676 -11.012051 -91.150131
8.9671469 -11.012043 -91.150146
10.938098 -11.015433 -91.229179
-10.944031 -8.9749641 -91.23188
-8.9671488 -8.9669561 -91.150146
-7.000669 -8.9669437 -91.150131
-5.0341897 -8.9669533 -91.150146
-2.9890471 -8.966939 -91.150146
-0.94390994 -8.9669504 -91.150146
1.0225689 -8.9669437 -91.150131
2.9890461 -8.9669456 -91.150146
5.0341883 -8.9669418 -91.150146
7.0006676 -8.966958 -91.150131
8.9671469 -8.9669533 -91.150146
10.94403 -8.9749622 -91.231888
-10.950373 -6.9998951 -91.234749
-8.9671497 -7.0005054 -91.150131
-7.00067 -7.0005021 -91.150108
-5.0341897 -7.0005088 -91.150131
-2.9890473 -7.0004978 -91.150131
-0.94391018 -7.0005031 -91.150131
1.0225691 -7.0005054 -91.150108
2.9890466 -7.0005102 -91.150131
5.0341878 -7.0005112 -91.150131
7.0006676 -7.0005064 -91.150108
8.9671478 -7.0005064 -91.150131
10.950375 -6.9999008 -91.234772
-10.938098 -5.0323009 -91.229156
-8.9671488 -5.0340796 -91.150146
-7.00067 -5.0340753 -91.150131
-5.0341897 -5.0340796 -91.150146
-2.9890473 -5.0340824 -91.150146
-0.94391006 -5.0340748 -91.150146
1.0225689 -5.0340786 -91.150131
2.9890463 -5.0340781 -91.150146
5.0341892 -5.03408 -91.150146
7.000669 -5.0340805 -91.150131
8.9671478 -5.0340757 -91.150146
10.938099 -5.0323086 -91.229149
-10.944032 -2.9916506 -91.231888
-8.9671488 -2.9889815 -91.150146
-7.00067 -2.9889815 -91.150131
-5.0341897 -2.9889843 -91.150146
-2.9890471 -2.9889832 -91.150146
-0.94390994 -2.9889829 -91.150146
1.0225689 -2.9889832 -91.150131
2.9890463 -2.988981 -91.150146
5.0341883 -2.9889808 -91.150146
7.0006685 -2.9889848 -91.150131
8.9671469 -2.9889822 -91.150146
10.944034 -2.9916575 -91.231865
-10.952126 -1.0025704 -91.232437
-8.9671488 -1.0225455 -91.150131
-7.00067 -1.0225456 -91.150108
-5.0341892 -1.0225455 -91.150131
-2.9890473 -1.0225457 -91.150131
-0.94391006 -1.0225446 -91.150131
1.0225692 -1.0225449 -91.150108
2.9890463 -1.022545 -91.150131
5.0341878 -1.0225457 -91.150131
7.0006685 -1.0225459 -91.150108
8.9671478 -1.0225463 -91.150131
10.955623 -1.0025777 -91.234642
-10.936255 0.96326262 -91.231346
-8.9671488 0.94389135 -91.150146
-7.000669 0.94389158 -91.150131
-5.0341897 0.94389147 -91.150146
-2.9890471 0.94389117 -91.150146
-0.94390994 0.94389063 -91.150146
1.0225687 0.94389141 -91.150131
2.9890461 0.94389093 -91.150146
5.0341883 0.94389099 -91.150146
7.0006685 0.94389147 -91.150131
8.9671469 0.94389009 -91.150146
10.932893 0.96325564 -91.22921
-10.944033 2.9916599 -91.231857
-8.9671488 2.9889817 -91.150146
-7.000669 2.9889817 -91.150131
-5.0341897 2.9889843 -91.150146
-2.9890471 2.9889853 -91.150146
-0.94390994 2.9889853 -91.150146
1.0225691 2.9889836 -91.150131
2.9890461 2.9889836 -91.150146
5.0341883 2.9889832 -91.150146
7.0006676 2.9889832 -91.150131
8.9671478 2.9889824 -91.150146
10.944033 2.9916508 -91.23188
-10.938097 5.0323091 -91.229156
-8.9671478 5.0340791 -91.150146
-7.00067 5.0340767 -91.150131
-5.0341892 5.0340772 -91.150146
-2.9890471 5.0340791 -91.150146
-0.94390994 5.034081 -91.150146
1.0225689 5.0340767 -91.150131
2.9890466 5.0340796 -91.150146
5.0341883 5.0340796 -91.150146
7.0006685 5.034081 -91.150131
8.9671469 5.0340772 -91.150146
10.938098 5.0323019 -91.229179
-10.950373 6.9999051 -91.234749
-8.9671488 7.000514 -91.150131
-7.00067 7.0005155 -91.150108
-5.0341892 7.000514 -91.150131
-2.9890475 7.0005174 -91.150131
-0.94391006 7.000515 -91.150131
1.0225691 7.0005145 -91.150108
2.9890466 7.0005116 -91.150131
5.0341878 7.0005183 -91.150131
7.0006685 7.0005174 -91.150108
8.9671488 7.0005174 -91.150131
10.950374 6.9999013 -91.234718
-10.944032 8.974967 -91.23188
-8.9671478 8.9669504 -91.150146
-7.0006685 8.9669437 -91.150131
-5.0341892 8.9669533 -91.150146
-2.9890473 8.966939 -91.150146
-0.94390994 8.9669447 -91.150146
1.0225689 8.9669552 -91.150131
2.9890468 8.9669456 -91.150146
5.0341883 8.9669533 -91.150146
7.0006685 8.9669437 -91.150131
8.9671469 8.9669447 -91.150146
10.944032 8.9749613 -91.231865
-10.938098 11.01544 -91.229172
-8.9671488 11.012045 -91.150146
-7.00067 11.012048 -91.150131
-5.0341892 11.012052 -91.150146
-2.9890473 11.012043 -91.150146
-0.94390988 11.012049 -91.150146
1.0225688 11.012045 -91.150131
2.9890461 11.012044 -91.150146
5.0341883 11.012054 -91.150146
7.000669 11.012046 -91.150131
8.9671469 11.012041 -91.150146
10.938098 11.015442 -91.229179
-10.950373 12.983405 -91.234764
-8.9671488 12.978476 -91.150131
-7.0006695 12.978484 -91.150108
-5.0341892 12.978485 -91.150131
-2.9890473 12.978494 -91.150131
-0.94391006 12.97848 -91.150131
1.0225691 12.978482 -91.150108
2.9890463 12.978494 -91.150131
5.0341878 12.978487 -91.150131
7.0006685 12.978481 -91.150108
8.9671488 12.978486 -91.150131
10.950372 12.983402 -91.234749
-10.914964 14.852509 -91.267044
-8.9720573 14.874964 -91.200775
-7.0045061 14.874967 -91.200706
-5.0369539 14.874972 -91.200676
-2.9906967 14.874951 -91.200813
-0.9505313 14.871388 -91.200539
1.016063 14.878798 -91.200836
2.9906735 14.874964 -91.200768
5.0369344 14.874964 -91.200806
7.0044899 14.874958 -91.200668
8.9720478 14.87497 -91.200752
10.91496 14.852516 -91.267036
-10.555067 16.0308 -91.964897
-9.0471888 16.030798 -91.964897
-6.9837804 16.030798 -91.964897
-4.9997339 16.030798 -91.964897
-3.0156891 16.030798 -91.964897
-1.031641 16.030798 -91.964897
0.9524051 16.030798 -91.964897
3.0158124 16.030798 -91.964897
4.9998598 16.030798 -91.964897
6.9838939 16.030798 -91.964897
9.047246 16.030798 -91.964897
10.555083 16.0308 -91.964897
