ply
format ascii 1.0
element vertex 1735
property float32 x
property float32 y
property float32 z
element face 0
property list uint8 int32 vertex_indices
end_header
-4.12359 -14.5907 -91.8926
-4.28219 -14.5907 -91.8926
-4.44078 -14.5907 -91.8926
-4.59938 -14.5907 -91.8926
-4.75798 -14.5907 -91.8926
-4.91657 -14.5907 -91.8926
-5.07518 -14.5907 -91.8926
-5.23377 -14.5907 -91.8926
-5.3924 -14.5907 -91.8926
-5.55098 -14.5907 -91.8926
-5.70958 -14.5907 -91.8926
-5.86818 -14.5907 -91.8926
-6.02678 -14.5907 -91.8926
-6.18538 -14.5907 -91.8926
-6.34398 -14.5907 -91.8926
-6.50258 -14.5907 -91.8926
-6.66118 -14.5907 -91.8926
-6.81977 -14.5907 -91.8926
-6.97838 -14.5907 -91.8926
-7.13698 -14.5907 -91.8926
-7.29556 -14.5907 -91.8926
-7.45419 -14.5907 -91.8926
-7.61277 -14.5907 -91.8926
-7.77137 -14.5907 -91.8926
-7.92999 -14.5907 -91.8926
-8.08858 -14.5907 -91.8926
-8.24718 -14.5907 -91.8926
-8.40578 -14.5907 -91.8926
-8.56437 -14.5907 -91.8926
-8.72298 -14.5907 -91.8926
-8.88157 -14.5907 -91.8926
-9.04017 -14.5907 -91.8926
-9.19878 -14.5907 -91.8926
-9.35737 -14.5907 -91.8926
-9.51598 -14.5907 -91.8926
-9.67457 -14.5907 -91.8926
-9.83318 -14.5907 -91.8926
-9.99177 -14.5907 -91.8926
-10.1504 -14.5907 -91.8926
-10.309 -14.5908 -91.8926
-10.4676 -14.5908 -91.8926
-10.6262 -14.5908 -91.8926
-10.7848 -14.5908 -91.8926
-10.9434 -14.5908 -91.8926
-11.1034 -14.5927 -91.9058
-11.2671 -14.5995 -91.9473
-11.4392 -14.6169 -92.0561
7.29829 -14.4381 -91.9289
7.12788 -14.4144 -91.7777
6.96543 -14.4056 -91.7231
6.80598 -14.4028 -91.7066
6.64753 -14.4025 -91.7043
6.48927 -14.4025 -91.7043
6.33099 -14.4025 -91.7043
6.17271 -14.4025 -91.7043
6.01443 -14.4025 -91.7043
5.85616 -14.4025 -91.7043
5.69788 -14.4025 -91.7043
5.53962 -14.4025 -91.7043
5.38134 -14.4025 -91.7043
5.22307 -14.4025 -91.7043
5.06479 -14.4025 -91.7043
4.90651 -14.4025 -91.7043
4.74825 -14.4025 -91.7043
4.58997 -14.4025 -91.7044
4.43169 -14.4025 -91.7043
4.27341 -14.4025 -91.7043
4.11514 -14.4025 -91.7044
3.95687 -14.4025 -91.7044
3.79859 -14.4025 -91.7044
3.64033 -14.4025 -91.7043
3.48205 -14.4025 -91.7044
3.32377 -14.4025 -91.7044
3.1655 -14.4025 -91.7044
3.00723 -14.4025 -91.7044
2.84895 -14.4025 -91.7044
2.69067 -14.4025 -91.7044
2.5324 -14.4025 -91.7044
2.37412 -14.4025 -91.7044
2.21586 -14.4025 -91.7044
2.05756 -14.4025 -91.7044
1.8993 -14.4025 -91.7044
1.74101 -14.4025 -91.7044
1.58274 -14.4025 -91.7044
1.42448 -14.4025 -91.7044
1.2662 -14.4025 -91.7044
1.10793 -14.4025 -91.7044
0.949646 -14.4025 -91.7044
0.791374 -14.4025 -91.7044
0.633102 -14.4025 -91.7044
0.474823 -14.4025 -91.7044
0.316544 -14.4025 -91.7044
0.158279 -14.4025 -91.7044
0 -14.4025 -91.7044
-0.158279 -14.4025 -91.7044
-0.316544 -14.4025 -91.7044
-0.474831 -14.4025 -91.7044
-0.633102 -14.4025 -91.7044
-0.791367 -14.4025 -91.7044
-0.949654 -14.4025 -91.7044
-1.10793 -14.4025 -91.7044
-1.2662 -14.4025 -91.7044
-1.42447 -14.4025 -91.7044
-1.58275 -14.4025 -91.7044
-1.74103 -14.4025 -91.7044
-1.89929 -14.4025 -91.7044
-2.05757 -14.4025 -91.7044
-2.21584 -14.4025 -91.7044
-2.37412 -14.4025 -91.7044
-2.5324 -14.4025 -91.7044
-2.69067 -14.4025 -91.7044
-2.84895 -14.4025 -91.7044
-3.00722 -14.4025 -91.7044
-3.1655 -14.4025 -91.7044
-3.32377 -14.4025 -91.7044
-3.48205 -14.4025 -91.7044
-3.64032 -14.4025 -91.7044
-3.79861 -14.4025 -91.7044
-3.95687 -14.4025 -91.7044
-4.11514 -14.4025 -91.7044
-4.27342 -14.4025 -91.7044
-4.43169 -14.4026 -91.7044
-4.58998 -14.4026 -91.7044
-4.74825 -14.4026 -91.7044
-4.90652 -14.4026 -91.7044
-5.0648 -14.4026 -91.7044
-5.22308 -14.4026 -91.7044
-5.38134 -14.4026 -91.7044
-5.53962 -14.4026 -91.7044
-5.69789 -14.4026 -91.7044
-5.85617 -14.4026 -91.7044
-6.01446 -14.4026 -91.7044
-6.17271 -14.4026 -91.7044
-6.33099 -14.4026 -91.7044
-6.48927 -14.4026 -91.7045
-6.64755 -14.4026 -91.7044
-6.80582 -14.4026 -91.7045
-6.9641 -14.4026 -91.7045
-7.12238 -14.4026 -91.7045
-7.28065 -14.4026 -91.7045
-7.43893 -14.4026 -91.7045
-7.59719 -14.4026 -91.7045
-7.75547 -14.4026 -91.7045
-7.91374 -14.4026 -91.7045
-8.07201 -14.4026 -91.7045
-8.23029 -14.4026 -91.7045
-8.38857 -14.4026 -91.7045
-8.54684 -14.4026 -91.7045
-8.70512 -14.4026 -91.7045
-8.86339 -14.4026 -91.7045
-9.02167 -14.4026 -91.7045
-9.17995 -14.4026 -91.7045
-9.33822 -14.4026 -91.7045
-9.49649 -14.4026 -91.7045
-9.65477 -14.4026 -91.7045
-9.81304 -14.4026 -91.7045
-9.97133 -14.4026 -91.7045
-10.1296 -14.4026 -91.7045
-10.2879 -14.4026 -91.7045
-10.4461 -14.4026 -91.7045
-10.6044 -14.4026 -91.7045
-10.7627 -14.4026 -91.7045
-10.921 -14.4026 -91.7045
-11.0792 -14.4026 -91.7045
-11.2375 -14.4026 -91.7045
-11.3976 -14.405 -91.7204
-11.5621 -14.413 -91.7699
-11.7371 -14.4337 -91.9004
7.6064 -14.2619 -91.8166
7.43117 -14.23 -91.6104
7.26772 -14.2195 -91.5437
7.1083 -14.2161 -91.523
6.94984 -14.2151 -91.517
6.7919 -14.2151 -91.517
6.63394 -14.2151 -91.517
6.476 -14.2151 -91.517
6.31804 -14.2151 -91.517
6.16009 -14.2151 -91.517
6.00214 -14.2151 -91.517
5.84419 -14.2151 -91.517
5.68624 -14.2151 -91.517
5.5283 -14.2151 -91.517
5.37033 -14.2151 -91.517
5.21239 -14.2151 -91.517
5.05444 -14.2151 -91.517
4.89648 -14.2151 -91.517
4.73853 -14.2151 -91.517
4.58058 -14.2151 -91.517
4.42263 -14.2151 -91.517
4.26468 -14.2151 -91.517
4.10673 -14.2151 -91.517
3.94878 -14.2151 -91.517
3.79082 -14.2151 -91.517
3.63288 -14.2151 -91.517
3.47492 -14.2151 -91.517
3.31697 -14.2151 -91.517
3.15902 -14.2151 -91.517
3.00108 -14.2151 -91.517
2.84312 -14.2151 -91.517
2.68517 -14.2151 -91.517
2.52721 -14.2151 -91.517
2.36927 -14.2151 -91.517
2.21131 -14.2151 -91.517
2.05336 -14.2151 -91.517
1.89541 -14.2151 -91.517
1.73746 -14.2151 -91.517
1.57952 -14.2151 -91.517
1.42156 -14.2151 -91.517
1.2636 -14.2151 -91.517
1.10565 -14.2151 -91.517
0.947693 -14.2151 -91.517
0.789749 -14.2151 -91.517
0.631798 -14.2151 -91.517
0.473839 -14.2151 -91.517
0.315895 -14.2151 -91.517
0.157944 -14.2151 -91.517
-7.62939e-006 -14.2151 -91.517
-0.157959 -14.2151 -91.517
-0.315918 -14.2151 -91.517
-0.473862 -14.2151 -91.517
-0.631813 -14.2151 -91.517
-0.789764 -14.2151 -91.517
-0.947723 -14.2151 -91.517
-1.10567 -14.2151 -91.517
-1.26362 -14.2152 -91.517
-1.42156 -14.2152 -91.517
-1.57952 -14.2152 -91.517
-1.73747 -14.2152 -91.517
-1.89542 -14.2152 -91.517
-2.05338 -14.2152 -91.517
-2.21133 -14.2152 -91.517
-2.36929 -14.2152 -91.517
-2.52723 -14.2152 -91.517
-2.68518 -14.2152 -91.517
-2.84313 -14.2152 -91.517
-3.00109 -14.2152 -91.517
-3.15904 -14.2152 -91.517
-3.31699 -14.2152 -91.517
-3.47494 -14.2152 -91.517
-3.63289 -14.2152 -91.5171
-3.79084 -14.2152 -91.5171
-3.9488 -14.2152 -91.517
-4.10674 -14.2152 -91.5171
-4.2647 -14.2152 -91.5171
-4.42265 -14.2152 -91.5171
-4.5806 -14.2152 -91.5171
-4.73856 -14.2152 -91.517
-4.89649 -14.2152 -91.5171
-5.05445 -14.2152 -91.5171
-5.21241 -14.2152 -91.5171
-5.37036 -14.2152 -91.5171
-5.52831 -14.2152 -91.5171
-5.68626 -14.2152 -91.5171
-5.84421 -14.2152 -91.5171
-6.00217 -14.2152 -91.5171
-6.16012 -14.2152 -91.5171
-6.31806 -14.2152 -91.5171
-6.47602 -14.2152 -91.5171
-6.63398 -14.2152 -91.5171
-6.79192 -14.2152 -91.5171
-6.94987 -14.2152 -91.5171
-7.10782 -14.2152 -91.5171
-7.26579 -14.2152 -91.5171
-7.42374 -14.2152 -91.5171
-7.58168 -14.2152 -91.5171
-7.73964 -14.2152 -91.5171
-7.89758 -14.2152 -91.5171
-8.05553 -14.2152 -91.5171
-8.21349 -14.2152 -91.5171
-8.37144 -14.2152 -91.5171
-8.52939 -14.2152 -91.5171
-8.68734 -14.2152 -91.5171
-8.84529 -14.2152 -91.5171
-9.00325 -14.2152 -91.5171
-9.16121 -14.2152 -91.5171
-9.31915 -14.2152 -91.5171
-9.4771 -14.2152 -91.5171
-9.63506 -14.2152 -91.5171
-9.793 -14.2152 -91.5171
-9.95096 -14.2152 -91.5171
-10.1089 -14.2152 -91.5171
-10.2669 -14.2152 -91.5171
-10.4248 -14.2152 -91.5171
-10.5828 -14.2152 -91.5171
-10.7407 -14.2152 -91.5171
-10.8987 -14.2152 -91.5171
-11.0566 -14.2152 -91.5171
-11.2146 -14.2152 -91.5171
-11.3725 -14.2152 -91.5171
-11.5308 -14.2157 -91.5199
-11.6906 -14.218 -91.5359
-11.856 -14.2272 -91.593
-12.038 -14.2557 -91.7756
7.73432 -14.0482 -91.4555
7.56926 -14.0351 -91.3709
7.40938 -14.0301 -91.3402
7.25093 -14.0285 -91.3303
7.09331 -14.0285 -91.3304
6.93567 -14.0285 -91.3304
6.77805 -14.0285 -91.3303
6.62041 -14.0285 -91.3303
6.46278 -14.0285 -91.3304
6.30515 -14.0285 -91.3304
6.14752 -14.0285 -91.3304
5.9899 -14.0285 -91.3304
5.83227 -14.0285 -91.3304
5.67463 -14.0285 -91.3304
5.517 -14.0285 -91.3304
5.35938 -14.0285 -91.3304
5.20175 -14.0285 -91.3304
5.04413 -14.0285 -91.3304
4.8865 -14.0285 -91.3304
4.72887 -14.0285 -91.3304
4.57124 -14.0285 -91.3304
4.41361 -14.0285 -91.3304
4.25598 -14.0285 -91.3304
4.09834 -14.0285 -91.3304
3.94072 -14.0285 -91.3304
3.78308 -14.0285 -91.3304
3.62547 -14.0285 -91.3304
3.46783 -14.0285 -91.3304
3.3102 -14.0285 -91.3304
3.15257 -14.0285 -91.3304
2.99494 -14.0285 -91.3304
2.83732 -14.0285 -91.3304
2.6797 -14.0285 -91.3304
2.52206 -14.0285 -91.3304
2.36443 -14.0285 -91.3304
2.20679 -14.0285 -91.3304
2.04917 -14.0285 -91.3304
1.89154 -14.0285 -91.3304
1.7339 -14.0285 -91.3304
1.57629 -14.0285 -91.3304
1.41865 -14.0285 -91.3304
1.26102 -14.0285 -91.3304
1.10339 -14.0285 -91.3304
0.945763 -14.0285 -91.3304
0.788132 -14.0285 -91.3304
0.630501 -14.0285 -91.3304
0.47287 -14.0285 -91.3304
0.315247 -14.0285 -91.3304
0.157608 -14.0285 -91.3304
-1.52588e-005 -14.0285 -91.3304
-0.157646 -14.0285 -91.3304
-0.315277 -14.0285 -91.3304
-0.4729 -14.0285 -91.3304
-0.630539 -14.0285 -91.3304
-0.788162 -14.0285 -91.3304
-0.945793 -14.0285 -91.3304
-1.10342 -14.0285 -91.3304
-1.26105 -14.0285 -91.3304
-1.41869 -14.0285 -91.3304
-1.57632 -14.0285 -91.3304
-1.73395 -14.0285 -91.3304
-1.89157 -14.0285 -91.3304
-2.04919 -14.0285 -91.3304
-2.20682 -14.0286 -91.3304
-2.36446 -14.0286 -91.3304
-2.52209 -14.0286 -91.3304
-2.67972 -14.0286 -91.3304
-2.83734 -14.0285 -91.3304
-2.99496 -14.0286 -91.3304
-3.1526 -14.0286 -91.3304
-3.31023 -14.0286 -91.3304
-3.46786 -14.0286 -91.3304
-3.6255 -14.0286 -91.3304
-3.78313 -14.0286 -91.3304
-3.94076 -14.0286 -91.3304
-4.09837 -14.0286 -91.3304
-4.25601 -14.0286 -91.3304
-4.41364 -14.0286 -91.3304
-4.57127 -14.0286 -91.3305
-4.7289 -14.0286 -91.3304
-4.88652 -14.0286 -91.3305
-5.04416 -14.0286 -91.3304
-5.20178 -14.0286 -91.3304
-5.35942 -14.0286 -91.3304
-5.51704 -14.0286 -91.3305
-5.67467 -14.0286 -91.3304
-5.83231 -14.0286 -91.3305
-5.98994 -14.0286 -91.3304
-6.14756 -14.0286 -91.3305
-6.30519 -14.0286 -91.3305
-6.46281 -14.0286 -91.3305
-6.62045 -14.0286 -91.3305
-6.77808 -14.0286 -91.3305
-6.93571 -14.0286 -91.3305
-7.09335 -14.0286 -91.3305
-7.25097 -14.0286 -91.3305
-7.4086 -14.0286 -91.3305
-7.56622 -14.0286 -91.3305
-7.72385 -14.0286 -91.3305
-7.88148 -14.0286 -91.3305
-8.03911 -14.0286 -91.3305
-8.19675 -14.0286 -91.3305
-8.35438 -14.0286 -91.3305
-8.512 -14.0286 -91.3305
-8.66963 -14.0286 -91.3305
-8.82726 -14.0286 -91.3305
-8.98489 -14.0286 -91.3305
-9.14252 -14.0286 -91.3305
-9.30016 -14.0286 -91.3305
-9.45779 -14.0286 -91.3305
-9.6154 -14.0286 -91.3305
-9.77304 -14.0286 -91.3305
-9.93067 -14.0286 -91.3305
-10.0883 -14.0286 -91.3305
-10.2459 -14.0286 -91.3305
-10.4036 -14.0286 -91.3305
-10.5612 -14.0286 -91.3305
-10.7188 -14.0286 -91.3305
-10.8764 -14.0286 -91.3305
-11.0341 -14.0286 -91.3305
-11.1917 -14.0286 -91.3305
-11.3493 -14.0286 -91.3305
-11.507 -14.0286 -91.3305
-11.6646 -14.0286 -91.3305
-11.8229 -14.0294 -91.3361
-11.9829 -14.0323 -91.3551
-12.1496 -14.043 -91.4228
-12.3389 -14.0791 -91.6579
8.03634 -13.8668 -91.3008
7.86985 -13.8513 -91.1989
7.70921 -13.8449 -91.1582
7.55078 -13.8426 -91.1445
7.39348 -13.8426 -91.1445
7.23617 -13.8426 -91.1445
7.07886 -13.8426 -91.1445
6.92155 -13.8426 -91.1445
6.76424 -13.8426 -91.1445
6.60692 -13.8426 -91.1445
6.44963 -13.8426 -91.1445
6.29232 -13.8426 -91.1445
6.135 -13.8426 -91.1445
5.97771 -13.8426 -91.1445
5.82039 -13.8426 -91.1445
5.66307 -13.8426 -91.1445
5.50577 -13.8426 -91.1445
5.34846 -13.8426 -91.1445
5.19115 -13.8426 -91.1445
5.03384 -13.8426 -91.1445
4.87654 -13.8426 -91.1445
4.71922 -13.8426 -91.1445
4.56192 -13.8426 -91.1445
4.40461 -13.8426 -91.1445
4.24731 -13.8426 -91.1445
4.09 -13.8426 -91.1445
3.93269 -13.8427 -91.1445
3.77538 -13.8426 -91.1445
3.61808 -13.8427 -91.1445
3.46077 -13.8426 -91.1445
3.30344 -13.8427 -91.1445
3.14615 -13.8427 -91.1445
2.98884 -13.8427 -91.1445
2.83153 -13.8427 -91.1445
2.67422 -13.8427 -91.1445
2.51691 -13.8427 -91.1445
2.3596 -13.8427 -91.1445
2.20229 -13.8427 -91.1445
2.04499 -13.8427 -91.1445
1.88767 -13.8427 -91.1445
1.73038 -13.8427 -91.1445
1.57307 -13.8427 -91.1445
1.41576 -13.8427 -91.1445
1.25845 -13.8427 -91.1445
1.10114 -13.8427 -91.1445
0.943825 -13.8427 -91.1445
0.78653 -13.8427 -91.1445
0.629219 -13.8427 -91.1446
0.471901 -13.8427 -91.1445
0.31459 -13.8427 -91.1446
0.157288 -13.8427 -91.1446
-1.52588e-005 -13.8427 -91.1446
-0.157326 -13.8427 -91.1446
-0.314636 -13.8427 -91.1446
-0.471939 -13.8427 -91.1446
-0.629257 -13.8427 -91.1445
-0.78656 -13.8427 -91.1446
-0.943878 -13.8427 -91.1446
-1.10118 -13.8427 -91.1446
-1.25849 -13.8427 -91.1446
-1.4158 -13.8427 -91.1446
-1.5731 -13.8427 -91.1446
-1.73042 -13.8427 -91.1446
-1.88773 -13.8427 -91.1446
-2.04504 -13.8427 -91.1446
-2.20235 -13.8427 -91.1446
-2.35965 -13.8427 -91.1446
-2.51696 -13.8427 -91.1446
-2.67426 -13.8427 -91.1446
-2.83157 -13.8427 -91.1446
-2.98888 -13.8427 -91.1446
-3.14619 -13.8427 -91.1446
-3.3035 -13.8427 -91.1446
-3.4608 -13.8427 -91.1446
-3.61812 -13.8427 -91.1446
-3.77542 -13.8427 -91.1446
-3.93273 -13.8427 -91.1446
-4.09004 -13.8427 -91.1446
-4.24735 -13.8427 -91.1446
-4.40466 -13.8427 -91.1446
-4.56197 -13.8427 -91.1446
-4.71928 -13.8427 -91.1446
-4.87659 -13.8427 -91.1446
-5.0339 -13.8427 -91.1446
-5.1912 -13.8427 -91.1446
-5.34851 -13.8427 -91.1446
-5.50582 -13.8427 -91.1446
-5.66314 -13.8427 -91.1446
-5.82044 -13.8427 -91.1446
-5.97775 -13.8427 -91.1446
-6.13506 -13.8427 -91.1446
-6.29237 -13.8427 -91.1446
-6.44968 -13.8427 -91.1446
-6.60699 -13.8427 -91.1446
-6.76429 -13.8427 -91.1446
-6.92161 -13.8427 -91.1446
-7.07892 -13.8427 -91.1446
-7.23621 -13.8427 -91.1446
-7.39353 -13.8427 -91.1446
-7.55083 -13.8428 -91.1446
-7.70815 -13.8428 -91.1446
-7.86546 -13.8428 -91.1446
-8.02277 -13.8428 -91.1446
-8.18006 -13.8428 -91.1446
-8.33738 -13.8428 -91.1446
-8.49469 -13.8428 -91.1446
-8.65201 -13.8428 -91.1446
-8.80931 -13.8428 -91.1446
-8.96661 -13.8428 -91.1446
-9.12392 -13.8428 -91.1446
-9.28123 -13.8428 -91.1446
-9.43855 -13.8428 -91.1446
-9.59585 -13.8428 -91.1446
-9.75316 -13.8428 -91.1446
-9.91046 -13.8428 -91.1446
-10.0678 -13.8428 -91.1446
-10.2251 -13.8428 -91.1446
-10.3824 -13.8428 -91.1447
-10.5397 -13.8428 -91.1447
-10.697 -13.8428 -91.1447
-10.8543 -13.8428 -91.1447
-11.0116 -13.8428 -91.1446
-11.1689 -13.8428 -91.1447
-11.3263 -13.8428 -91.1447
-11.4836 -13.8428 -91.1447
-11.6409 -13.8428 -91.1447
-11.7982 -13.8428 -91.1447
-11.9555 -13.8428 -91.1447
-12.1138 -13.844 -91.153
-12.2746 -13.8481 -91.18
-12.4431 -13.8607 -91.2615
8.33801 -13.6871 -91.1538
8.16933 -13.6681 -91.0275
8.00786 -13.6604 -90.9769
7.84953 -13.6577 -90.9607
7.69242 -13.6575 -90.9594
7.53544 -13.6575 -90.9594
7.37846 -13.6575 -90.9594
7.22145 -13.6575 -90.9594
7.06448 -13.6575 -90.9594
6.90749 -13.6575 -90.9594
6.7505 -13.6575 -90.9594
6.59352 -13.6575 -90.9594
6.43652 -13.6575 -90.9594
6.27953 -13.6575 -90.9594
6.12254 -13.6575 -90.9594
5.96556 -13.6575 -90.9594
5.80856 -13.6575 -90.9594
5.65158 -13.6575 -90.9594
5.49459 -13.6575 -90.9594
5.3376 -13.6575 -90.9594
5.1806 -13.6575 -90.9594
5.02361 -13.6575 -90.9594
4.86663 -13.6575 -90.9594
4.70965 -13.6575 -90.9594
4.55266 -13.6576 -90.9594
4.39566 -13.6575 -90.9594
4.23868 -13.6576 -90.9594
4.08168 -13.6576 -90.9594
3.9247 -13.6576 -90.9594
3.76771 -13.6576 -90.9594
3.61072 -13.6576 -90.9594
3.45374 -13.6576 -90.9594
3.29675 -13.6576 -90.9594
3.13975 -13.6576 -90.9594
2.98277 -13.6576 -90.9594
2.82578 -13.6576 -90.9594
2.66878 -13.6576 -90.9594
2.5118 -13.6576 -90.9594
2.3548 -13.6576 -90.9594
2.19783 -13.6576 -90.9595
2.04082 -13.6576 -90.9594
1.88384 -13.6576 -90.9594
1.72686 -13.6576 -90.9594
1.56987 -13.6576 -90.9594
1.41287 -13.6576 -90.9594
1.25587 -13.6576 -90.9595
1.09889 -13.6576 -90.9595
0.941902 -13.6576 -90.9594
0.784912 -13.6576 -90.9595
0.62793 -13.6576 -90.9595
0.470947 -13.6576 -90.9595
0.31395 -13.6576 -90.9595
0.15696 -13.6576 -90.9595
-3.05176e-005 -13.6576 -90.9595
-0.157021 -13.6576 -90.9595
-0.313995 -13.6576 -90.9595
-0.470993 -13.6576 -90.9595
-0.627991 -13.6576 -90.9595
-0.784973 -13.6576 -90.9595
-0.941963 -13.6576 -90.9595
-1.09895 -13.6576 -90.9595
-1.25595 -13.6576 -90.9595
-1.41293 -13.6576 -90.9595
-1.56992 -13.6576 -90.9595
-1.72691 -13.6576 -90.9595
-1.8839 -13.6576 -90.9595
-2.04089 -13.6576 -90.9595
-2.19788 -13.6576 -90.9595
-2.35486 -13.6576 -90.9595
-2.51186 -13.6576 -90.9595
-2.66885 -13.6576 -90.9595
-2.82583 -13.6576 -90.9595
-2.98283 -13.6576 -90.9595
-3.13982 -13.6576 -90.9595
-3.2968 -13.6576 -90.9595
-3.45379 -13.6576 -90.9595
-3.61077 -13.6576 -90.9595
-3.76778 -13.6576 -90.9595
-3.92476 -13.6576 -90.9595
-4.08176 -13.6576 -90.9595
-4.23873 -13.6576 -90.9595
-4.39572 -13.6576 -90.9595
-4.5527 -13.6576 -90.9595
-4.7097 -13.6576 -90.9595
-4.8667 -13.6576 -90.9595
-5.02368 -13.6576 -90.9595
-5.18068 -13.6576 -90.9595
-5.33767 -13.6576 -90.9595
-5.49465 -13.6576 -90.9595
-5.65163 -13.6576 -90.9595
-5.80863 -13.6576 -90.9595
-5.96561 -13.6576 -90.9595
-6.1226 -13.6576 -90.9595
-6.2796 -13.6576 -90.9595
-6.43658 -13.6576 -90.9595
-6.59357 -13.6576 -90.9595
-6.75056 -13.6577 -90.9595
-6.90755 -13.6576 -90.9595
-7.06454 -13.6577 -90.9595
-7.22153 -13.6577 -90.9595
-7.37851 -13.6577 -90.9595
-7.53551 -13.6577 -90.9595
-7.6925 -13.6577 -90.9595
-7.84949 -13.6577 -90.9595
-8.00648 -13.6577 -90.9595
-8.16348 -13.6577 -90.9595
-8.32045 -13.6577 -90.9595
-8.47744 -13.6577 -90.9595
-8.63443 -13.6577 -90.9595
-8.79144 -13.6577 -90.9595
-8.94841 -13.6577 -90.9595
-9.10541 -13.6577 -90.9595
-9.26239 -13.6577 -90.9595
-9.41938 -13.6577 -90.9595
-9.57638 -13.6577 -90.9595
-9.73336 -13.6577 -90.9595
-9.89035 -13.6577 -90.9595
-10.0473 -13.6577 -90.9595
-10.2043 -13.6577 -90.9595
-10.3613 -13.6577 -90.9595
-10.5183 -13.6577 -90.9595
-10.6753 -13.6577 -90.9596
-10.8323 -13.6577 -90.9596
-10.9893 -13.6577 -90.9596
-11.1463 -13.6577 -90.9596
-11.3033 -13.6577 -90.9596
-11.4602 -13.6577 -90.9595
-11.6172 -13.6577 -90.9596
-11.7742 -13.6577 -90.9596
-11.9312 -13.6577 -90.9596
-12.0882 -13.6577 -90.9596
-12.2452 -13.6577 -90.9596
-12.4036 -13.6593 -90.9707
-12.5653 -13.6646 -91.0054
-12.7356 -13.6791 -91.1007
8.64223 -13.5133 -91.0431
8.46773 -13.4857 -90.8567
8.3054 -13.4768 -90.7972
8.14732 -13.4739 -90.78
7.99018 -13.4732 -90.7751
7.8335 -13.4732 -90.7751
7.67683 -13.4732 -90.7751
7.52017 -13.4732 -90.775
7.3635 -13.4732 -90.7751
7.20682 -13.4732 -90.775
7.05016 -13.4732 -90.7751
6.89349 -13.4732 -90.7751
6.73682 -13.4732 -90.7751
6.58015 -13.4732 -90.7751
6.42347 -13.4732 -90.7751
6.2668 -13.4732 -90.7751
6.11014 -13.4732 -90.7751
5.95346 -13.4732 -90.7751
5.79679 -13.4732 -90.7751
5.64011 -13.4732 -90.7751
5.48344 -13.4732 -90.7751
5.32677 -13.4732 -90.7751
5.1701 -13.4732 -90.7751
5.01344 -13.4732 -90.7751
4.85676 -13.4732 -90.7751
4.70009 -13.4732 -90.7751
4.54342 -13.4732 -90.7751
4.38674 -13.4732 -90.7751
4.23007 -13.4732 -90.7751
4.07341 -13.4732 -90.7751
3.91674 -13.4732 -90.7751
3.76006 -13.4732 -90.7751
3.60339 -13.4732 -90.7751
3.44672 -13.4732 -90.7751
3.29005 -13.4732 -90.7751
3.13338 -13.4732 -90.7751
2.97671 -13.4732 -90.7751
2.82004 -13.4732 -90.7751
2.66337 -13.4732 -90.7751
2.5067 -13.4732 -90.7751
2.35004 -13.4732 -90.7751
2.19335 -13.4732 -90.7751
2.03668 -13.4732 -90.7751
1.88002 -13.4732 -90.7751
1.72335 -13.4732 -90.7751
1.56668 -13.4732 -90.7751
1.41 -13.4732 -90.7751
1.25333 -13.4732 -90.7751
1.09666 -13.4732 -90.7751
0.939987 -13.4732 -90.7751
0.783318 -13.4732 -90.7751
0.626656 -13.4732 -90.7751
0.469986 -13.4732 -90.7751
0.313309 -13.4732 -90.7751
0.156647 -13.4732 -90.7751
-3.05176e-005 -13.4732 -90.7751
-0.1567 -13.4732 -90.7751
-0.313385 -13.4732 -90.7751
-0.470047 -13.4732 -90.7751
-0.626724 -13.4732 -90.7751
-0.783394 -13.4732 -90.7751
-0.940063 -13.4733 -90.7751
-1.09673 -13.4733 -90.7751
-1.2534 -13.4733 -90.7751
-1.41007 -13.4733 -90.7751
-1.56674 -13.4733 -90.7751
-1.72342 -13.4733 -90.7751
-1.88009 -13.4733 -90.7751
-2.03675 -13.4733 -90.7751
-2.19342 -13.4733 -90.7751
-2.35011 -13.4733 -90.7751
-2.50678 -13.4733 -90.7751
-2.66344 -13.4733 -90.7751
-2.82011 -13.4733 -90.7751
-2.97678 -13.4733 -90.7751
-3.13345 -13.4733 -90.7751
-3.29013 -13.4733 -90.7751
-3.4468 -13.4733 -90.7751
-3.60346 -13.4733 -90.7751
-3.76013 -13.4733 -90.7751
-3.91681 -13.4733 -90.7751
-4.07349 -13.4733 -90.7751
-4.23016 -13.4733 -90.7751
-4.38683 -13.4733 -90.7751
-4.54349 -13.4733 -90.7752
-4.70016 -13.4733 -90.7752
-4.85683 -13.4733 -90.7752
-5.0135 -13.4733 -90.7752
-5.17017 -13.4733 -90.7752
-5.32684 -13.4733 -90.7752
-5.48351 -13.4733 -90.7752
-5.64018 -13.4733 -90.7752
-5.79687 -13.4733 -90.7752
-5.95354 -13.4733 -90.7752
-6.11019 -13.4733 -90.7752
-6.26687 -13.4733 -90.7752
-6.42355 -13.4733 -90.7752
-6.58022 -13.4733 -90.7752
-6.73689 -13.4733 -90.7752
-6.89357 -13.4733 -90.7752
-7.05022 -13.4733 -90.7752
-7.2069 -13.4733 -90.7752
-7.36358 -13.4733 -90.7752
-7.52025 -13.4733 -90.7752
-7.67692 -13.4733 -90.7752
-7.83359 -13.4733 -90.7752
-7.99026 -13.4733 -90.7752
-8.14693 -13.4733 -90.7752
-8.3036 -13.4733 -90.7752
-8.46027 -13.4733 -90.7752
-8.61694 -13.4733 -90.7752
-8.77362 -13.4733 -90.7752
-8.93029 -13.4733 -90.7752
-9.08696 -13.4733 -90.7752
-9.24364 -13.4733 -90.7752
-9.4003 -13.4733 -90.7752
-9.55697 -13.4733 -90.7752
-9.71363 -13.4733 -90.7752
-9.87032 -13.4733 -90.7752
-10.027 -13.4733 -90.7752
-10.1837 -13.4733 -90.7752
-10.3403 -13.4733 -90.7752
-10.497 -13.4733 -90.7752
-10.6537 -13.4733 -90.7752
-10.8103 -13.4733 -90.7752
-10.967 -13.4733 -90.7752
-11.1237 -13.4733 -90.7752
-11.2804 -13.4733 -90.7752
-11.437 -13.4734 -90.7752
-11.5937 -13.4733 -90.7752
-11.7504 -13.4733 -90.7752
-11.907 -13.4733 -90.7752
-12.0637 -13.4734 -90.7752
-12.2204 -13.4734 -90.7752
-12.3771 -13.4734 -90.7752
-12.5337 -13.4734 -90.7752
-12.6922 -13.4753 -90.7891
-12.8548 -13.4818 -90.8316
-13.0271 -13.4981 -90.9405
8.95645 -13.3559 -91.0416
8.76665 -13.3066 -90.7043
8.60255 -13.2952 -90.6273
8.44389 -13.2909 -90.6002
8.28672 -13.2896 -90.5914
8.13036 -13.2896 -90.5914
7.97401 -13.2896 -90.5915
7.81765 -13.2896 -90.5914
7.6613 -13.2896 -90.5914
7.50494 -13.2896 -90.5914
7.34859 -13.2896 -90.5915
7.19223 -13.2896 -90.5915
7.03589 -13.2896 -90.5915
6.87953 -13.2896 -90.5915
6.72318 -13.2896 -90.5915
6.56682 -13.2896 -90.5914
6.41046 -13.2896 -90.5915
6.25412 -13.2896 -90.5915
6.09776 -13.2896 -90.5915
5.94141 -13.2896 -90.5915
5.78505 -13.2896 -90.5915
5.6287 -13.2896 -90.5915
5.47235 -13.2896 -90.5915
5.31599 -13.2896 -90.5915
5.15965 -13.2896 -90.5915
5.00328 -13.2896 -90.5915
4.84692 -13.2896 -90.5915
4.69057 -13.2896 -90.5915
4.53422 -13.2896 -90.5915
4.37787 -13.2896 -90.5915
4.22152 -13.2896 -90.5915
4.06516 -13.2896 -90.5915
3.9088 -13.2896 -90.5915
3.75246 -13.2896 -90.5915
3.59611 -13.2896 -90.5915
3.43974 -13.2896 -90.5915
3.2834 -13.2896 -90.5915
3.12703 -13.2896 -90.5915
2.97069 -13.2896 -90.5915
2.81433 -13.2896 -90.5915
2.65797 -13.2896 -90.5915
2.50162 -13.2896 -90.5915
2.34527 -13.2896 -90.5915
2.18892 -13.2896 -90.5915
2.03256 -13.2896 -90.5915
1.87621 -13.2896 -90.5915
1.71985 -13.2896 -90.5915
1.5635 -13.2896 -90.5915
1.40715 -13.2896 -90.5915
1.25079 -13.2896 -90.5915
1.09444 -13.2896 -90.5915
0.938072 -13.2896 -90.5915
0.781731 -13.2896 -90.5915
0.625374 -13.2896 -90.5915
0.469017 -13.2896 -90.5915
0.312668 -13.2896 -90.5915
0.156303 -13.2896 -90.5915
-3.8147e-005 -13.2896 -90.5915
-0.156395 -13.2897 -90.5915
-0.312752 -13.2896 -90.5915
-0.469101 -13.2897 -90.5915
-0.625458 -13.2896 -90.5915
-0.781815 -13.2897 -90.5915
-0.938171 -13.2897 -90.5915
-1.09453 -13.2897 -90.5915
-1.25087 -13.2897 -90.5915
-1.40723 -13.2897 -90.5915
-1.56358 -13.2897 -90.5915
-1.71994 -13.2897 -90.5915
-1.87629 -13.2897 -90.5915
-2.03265 -13.2897 -90.5915
-2.189 -13.2897 -90.5915
-2.34535 -13.2897 -90.5915
-2.50171 -13.2897 -90.5915
-2.65806 -13.2897 -90.5915
-2.81442 -13.2897 -90.5915
-2.97077 -13.2897 -90.5915
-3.12713 -13.2897 -90.5916
-3.28347 -13.2897 -90.5916
-3.43983 -13.2897 -90.5915
-3.59619 -13.2897 -90.5915
-3.75254 -13.2897 -90.5915
-3.9089 -13.2897 -90.5915
-4.06525 -13.2897 -90.5916
-4.2216 -13.2897 -90.5916
-4.37796 -13.2897 -90.5916
-4.53432 -13.2897 -90.5916
-4.69066 -13.2897 -90.5916
-4.84702 -13.2897 -90.5916
-5.00337 -13.2897 -90.5916
-5.15973 -13.2897 -90.5916
-5.31608 -13.2897 -90.5916
-5.47244 -13.2897 -90.5916
-5.62878 -13.2897 -90.5916
-5.78515 -13.2897 -90.5916
-5.94151 -13.2897 -90.5916
-6.09785 -13.2897 -90.5916
-6.2542 -13.2897 -90.5916
-6.41056 -13.2897 -90.5916
-6.56692 -13.2897 -90.5916
-6.72327 -13.2897 -90.5916
-6.87963 -13.2897 -90.5916
-7.03598 -13.2897 -90.5916
-7.19234 -13.2897 -90.5916
-7.34869 -13.2897 -90.5916
-7.50504 -13.2897 -90.5916
-7.66139 -13.2897 -90.5916
-7.81775 -13.2897 -90.5916
-7.97411 -13.2897 -90.5916
-8.13046 -13.2897 -90.5916
-8.28682 -13.2897 -90.5916
-8.44316 -13.2897 -90.5916
-8.59952 -13.2897 -90.5916
-8.75587 -13.2897 -90.5916
-8.91223 -13.2897 -90.5916
-9.06859 -13.2897 -90.5916
-9.22494 -13.2897 -90.5916
-9.38129 -13.2897 -90.5916
-9.53764 -13.2897 -90.5916
-9.694 -13.2897 -90.5916
-9.85036 -13.2897 -90.5916
-10.0067 -13.2897 -90.5916
-10.1631 -13.2897 -90.5916
-10.3194 -13.2897 -90.5916
-10.4758 -13.2897 -90.5916
-10.6321 -13.2897 -90.5916
-10.7885 -13.2897 -90.5916
-10.9448 -13.2897 -90.5916
-11.1012 -13.2897 -90.5916
-11.2576 -13.2897 -90.5916
-11.4139 -13.2897 -90.5916
-11.5703 -13.2897 -90.5916
-11.7266 -13.2897 -90.5916
-11.883 -13.2898 -90.5916
-12.0393 -13.2898 -90.5916
-12.1957 -13.2898 -90.5916
-12.352 -13.2898 -90.5916
-12.5084 -13.2898 -90.5916
-12.6647 -13.2898 -90.5916
-12.8212 -13.2899 -90.5926
-12.9796 -13.292 -90.6082
-13.1433 -13.2997 -90.6584
-13.3195 -13.3196 -90.7938
9.06445 -13.128 -90.5521
8.89876 -13.1143 -90.458
8.73926 -13.1087 -90.4211
8.58206 -13.1067 -90.4086
8.42603 -13.1067 -90.4086
8.26999 -13.1067 -90.4086
8.11394 -13.1067 -90.4086
7.95791 -13.1067 -90.4086
7.80187 -13.1067 -90.4086
7.64583 -13.1067 -90.4086
7.48979 -13.1067 -90.4086
7.33376 -13.1067 -90.4086
7.17772 -13.1067 -90.4086
7.02168 -13.1067 -90.4086
6.86564 -13.1067 -90.4086
6.7096 -13.1067 -90.4086
6.55356 -13.1067 -90.4086
6.39752 -13.1067 -90.4086
6.24149 -13.1067 -90.4086
6.08545 -13.1067 -90.4086
5.92941 -13.1067 -90.4086
5.77338 -13.1067 -90.4086
5.61734 -13.1067 -90.4086
5.4613 -13.1067 -90.4086
5.30527 -13.1067 -90.4086
5.14923 -13.1067 -90.4086
4.99318 -13.1068 -90.4086
4.83714 -13.1068 -90.4086
4.68111 -13.1068 -90.4086
4.52506 -13.1068 -90.4086
4.36903 -13.1068 -90.4086
4.21299 -13.1068 -90.4086
4.05695 -13.1068 -90.4086
3.90092 -13.1068 -90.4086
3.74487 -13.1068 -90.4086
3.58883 -13.1068 -90.4086
3.43279 -13.1068 -90.4086
3.27676 -13.1068 -90.4086
3.12071 -13.1068 -90.4086
2.96468 -13.1068 -90.4086
2.80865 -13.1068 -90.4086
2.6526 -13.1068 -90.4086
2.49657 -13.1068 -90.4086
2.34053 -13.1068 -90.4086
2.18449 -13.1068 -90.4086
2.02845 -13.1068 -90.4086
1.87241 -13.1068 -90.4086
1.71637 -13.1068 -90.4086
1.56033 -13.1068 -90.4087
1.4043 -13.1068 -90.4087
1.24825 -13.1068 -90.4086
1.09222 -13.1068 -90.4086
0.93618 -13.1068 -90.4086
0.780144 -13.1068 -90.4086
0.624107 -13.1068 -90.4087
0.468063 -13.1068 -90.4087
0.312035 -13.1068 -90.4087
0.155983 -13.1068 -90.4087
-4.57764e-005 -13.1068 -90.4087
-0.15609 -13.1068 -90.4087
-0.312126 -13.1068 -90.4087
-0.46817 -13.1068 -90.4087
-0.624207 -13.1068 -90.4087
-0.780251 -13.1068 -90.4087
-0.936272 -13.1068 -90.4087
-1.09232 -13.1068 -90.4087
-1.24836 -13.1068 -90.4087
-1.4044 -13.1068 -90.4087
-1.56042 -13.1068 -90.4087
-1.71647 -13.1068 -90.4087
-1.87252 -13.1068 -90.4087
-2.02854 -13.1068 -90.4087
-2.18459 -13.1068 -90.4087
-2.34062 -13.1068 -90.4087
-2.49666 -13.1068 -90.4087
-2.65269 -13.1068 -90.4087
-2.80875 -13.1068 -90.4087
-2.96477 -13.1068 -90.4087
-3.12082 -13.1068 -90.4087
-3.27686 -13.1068 -90.4087
-3.4329 -13.1068 -90.4087
-3.58893 -13.1068 -90.4087
-3.74497 -13.1068 -90.4087
-3.90101 -13.1068 -90.4087
-4.05705 -13.1068 -90.4087
-4.21309 -13.1068 -90.4087
-4.36913 -13.1068 -90.4087
-4.52516 -13.1068 -90.4087
-4.68121 -13.1068 -90.4087
-4.83723 -13.1068 -90.4087
-4.99329 -13.1068 -90.4087
-5.14932 -13.1068 -90.4087
-5.30536 -13.1068 -90.4087
-5.4614 -13.1068 -90.4087
-5.61743 -13.1068 -90.4087
-5.77348 -13.1068 -90.4087
-5.92951 -13.1068 -90.4087
-6.08556 -13.1068 -90.4087
-6.24159 -13.1068 -90.4087
-6.39763 -13.1068 -90.4087
-6.55367 -13.1068 -90.4087
-6.7097 -13.1068 -90.4087
-6.86575 -13.1068 -90.4087
-7.02179 -13.1069 -90.4087
-7.17783 -13.1068 -90.4087
-7.33385 -13.1069 -90.4087
-7.4899 -13.1069 -90.4087
-7.64594 -13.1069 -90.4087
-7.80199 -13.1069 -90.4087
-7.95801 -13.1069 -90.4087
-8.11406 -13.1069 -90.4087
-8.2701 -13.1069 -90.4087
-8.42613 -13.1069 -90.4087
-8.58217 -13.1069 -90.4087
-8.73821 -13.1069 -90.4087
-8.89424 -13.1069 -90.4087
-9.05028 -13.1069 -90.4087
-9.20633 -13.1069 -90.4087
-9.36237 -13.1069 -90.4087
-9.51841 -13.1069 -90.4087
-9.67445 -13.1069 -90.4087
-9.83048 -13.1069 -90.4088
-9.98652 -13.1069 -90.4087
-10.1426 -13.1069 -90.4088
-10.2986 -13.1069 -90.4088
-10.4546 -13.1069 -90.4087
-10.6107 -13.1069 -90.4088
-10.7667 -13.1069 -90.4088
-10.9228 -13.1069 -90.4088
-11.0788 -13.1069 -90.4088
-11.2348 -13.1069 -90.4088
-11.3909 -13.1069 -90.4088
-11.5469 -13.1069 -90.4088
-11.7029 -13.1069 -90.4088
-11.859 -13.1069 -90.4088
-12.015 -13.1069 -90.4088
-12.1711 -13.1069 -90.4088
-12.3271 -13.1069 -90.4088
-12.4831 -13.1069 -90.4088
-12.6392 -13.1069 -90.4088
-12.7952 -13.1069 -90.4088
-12.9513 -13.1069 -90.4088
-13.1078 -13.1074 -90.4124
-13.2659 -13.1095 -90.428
-13.4306 -13.1182 -90.4859
-13.6145 -13.1453 -90.6719
9.36127 -12.9499 -90.4005
9.19392 -12.934 -90.2894
9.03347 -12.9272 -90.2427
8.87624 -12.9246 -90.2267
8.72048 -12.9246 -90.2265
8.56476 -12.9246 -90.2265
8.40904 -12.9246 -90.2265
8.25331 -12.9246 -90.2265
8.09759 -12.9246 -90.2265
7.94187 -12.9246 -90.2265
7.78615 -12.9246 -90.2265
7.63042 -12.9246 -90.2265
7.4747 -12.9246 -90.2265
7.31897 -12.9246 -90.2265
7.16325 -12.9246 -90.2265
7.00751 -12.9246 -90.2265
6.8518 -12.9246 -90.2265
6.69608 -12.9246 -90.2265
6.54035 -12.9246 -90.2265
6.38462 -12.9246 -90.2265
6.22891 -12.9246 -90.2265
6.07318 -12.9246 -90.2265
5.91746 -12.9246 -90.2265
5.76173 -12.9246 -90.2265
5.606 -12.9246 -90.2265
5.45028 -12.9246 -90.2265
5.29457 -12.9246 -90.2265
5.13884 -12.9246 -90.2265
4.98311 -12.9246 -90.2265
4.82739 -12.9246 -90.2265
4.67168 -12.9246 -90.2265
4.51594 -12.9246 -90.2265
4.36022 -12.9246 -90.2265
4.20449 -12.9246 -90.2265
4.04877 -12.9246 -90.2265
3.89305 -12.9246 -90.2265
3.73732 -12.9246 -90.2265
3.5816 -12.9246 -90.2265
3.42587 -12.9246 -90.2265
3.27016 -12.9246 -90.2265
3.11443 -12.9246 -90.2265
2.95869 -12.9246 -90.2265
2.80299 -12.9246 -90.2265
2.64725 -12.9246 -90.2265
2.49153 -12.9246 -90.2265
2.33581 -12.9247 -90.2265
2.18009 -12.9246 -90.2265
2.02436 -12.9246 -90.2265
1.86864 -12.9246 -90.2265
1.71291 -12.9247 -90.2265
1.55718 -12.9247 -90.2265
1.40146 -12.9247 -90.2265
1.24574 -12.9247 -90.2265
1.09001 -12.9247 -90.2265
0.934296 -12.9247 -90.2265
0.778572 -12.9247 -90.2265
0.622841 -12.9247 -90.2265
0.46711 -12.9247 -90.2265
0.311401 -12.9247 -90.2265
0.15567 -12.9247 -90.2265
-5.34058e-005 -12.9247 -90.2265
-0.155777 -12.9247 -90.2265
-0.311501 -12.9247 -90.2265
-0.467224 -12.9247 -90.2265
-0.622948 -12.9247 -90.2265
-0.778679 -12.9247 -90.2265
-0.934395 -12.9247 -90.2265
-1.09013 -12.9247 -90.2266
-1.24585 -12.9247 -90.2266
-1.40157 -12.9247 -90.2265
-1.55729 -12.9247 -90.2266
-1.71302 -12.9247 -90.2266
-1.86874 -12.9247 -90.2266
-2.02446 -12.9247 -90.2266
-2.1802 -12.9247 -90.2265
-2.33592 -12.9247 -90.2266
-2.49165 -12.9247 -90.2266
-2.64737 -12.9247 -90.2266
-2.80309 -12.9247 -90.2266
-2.95881 -12.9247 -90.2266
-3.11454 -12.9247 -90.2266
-3.27027 -12.9247 -90.2266
-3.42599 -12.9247 -90.2266
-3.5817 -12.9247 -90.2266
-3.73744 -12.9247 -90.2266
-3.89317 -12.9247 -90.2266
-4.04889 -12.9247 -90.2266
-4.20461 -12.9247 -90.2266
-4.36034 -12.9247 -90.2266
-4.51606 -12.9247 -90.2266
-4.67178 -12.9247 -90.2266
-4.82751 -12.9247 -90.2266
-4.98322 -12.9247 -90.2266
-5.13897 -12.9247 -90.2266
-5.29468 -12.9247 -90.2266
-5.45039 -12.9247 -90.2266
-5.60613 -12.9247 -90.2266
-5.76186 -12.9247 -90.2266
-5.91757 -12.9247 -90.2266
-6.0733 -12.9247 -90.2266
-6.22903 -12.9247 -90.2266
-6.38476 -12.9247 -90.2266
-6.54048 -12.9247 -90.2266
-6.6962 -12.9247 -90.2266
-6.85191 -12.9247 -90.2266
-7.00764 -12.9247 -90.2266
-7.16337 -12.9247 -90.2266
-7.31909 -12.9247 -90.2266
-7.47482 -12.9247 -90.2266
-7.63055 -12.9247 -90.2266
-7.78627 -12.9247 -90.2266
-7.94199 -12.9247 -90.2266
-8.09772 -12.9247 -90.2266
-8.25343 -12.9247 -90.2266
-8.40916 -12.9247 -90.2266
-8.56489 -12.9247 -90.2266
-8.72061 -12.9247 -90.2266
-8.87634 -12.9247 -90.2266
-9.03207 -12.9247 -90.2266
-9.18778 -12.9247 -90.2266
-9.34351 -12.9248 -90.2266
-9.49924 -12.9248 -90.2266
-9.65496 -12.9248 -90.2266
-9.81068 -12.9248 -90.2266
-9.96642 -12.9248 -90.2266
-10.1221 -12.9248 -90.2266
-10.2779 -12.9248 -90.2266
-10.4336 -12.9248 -90.2266
-10.5893 -12.9248 -90.2266
-10.745 -12.9248 -90.2266
-10.9008 -12.9248 -90.2266
-11.0565 -12.9248 -90.2266
-11.2122 -12.9248 -90.2266
-11.3679 -12.9248 -90.2266
-11.5237 -12.9248 -90.2266
-11.6794 -12.9248 -90.2266
-11.8351 -12.9248 -90.2266
-11.9908 -12.9248 -90.2266
-12.1465 -12.9248 -90.2267
-12.3023 -12.9248 -90.2267
-12.458 -12.9248 -90.2266
-12.6137 -12.9248 -90.2267
-12.7694 -12.9248 -90.2267
-12.9252 -12.9248 -90.2267
-13.0809 -12.9248 -90.2267
-13.2366 -12.9248 -90.2267
-13.394 -12.9265 -90.2386
-13.5554 -12.9321 -90.2777
-13.7281 -12.9481 -90.3888
9.66074 -12.7771 -90.2826
9.48798 -12.7544 -90.1214
9.32652 -12.7463 -90.065
9.1696 -12.7438 -90.049
9.01377 -12.7432 -90.0451
8.85836 -12.7432 -90.0451
8.70294 -12.7432 -90.0451
8.54754 -12.7432 -90.0451
8.39212 -12.7432 -90.0451
8.23672 -12.7432 -90.0451
8.08131 -12.7432 -90.0451
7.9259 -12.7432 -90.0451
7.77048 -12.7432 -90.0451
7.61508 -12.7432 -90.0451
7.45966 -12.7432 -90.0451
7.30424 -12.7432 -90.0451
7.14883 -12.7432 -90.0451
6.99343 -12.7432 -90.0451
6.83802 -12.7432 -90.0451
6.6826 -12.7432 -90.0451
6.5272 -12.7432 -90.0451
6.37179 -12.7432 -90.0451
6.21638 -12.7432 -90.0451
6.06096 -12.7432 -90.0451
5.90556 -12.7432 -90.0451
5.75014 -12.7432 -90.0451
5.59473 -12.7432 -90.0451
5.43933 -12.7432 -90.0451
5.28391 -12.7432 -90.0451
5.1285 -12.7432 -90.0451
4.9731 -12.7432 -90.0451
4.81768 -12.7432 -90.0451
4.66225 -12.7432 -90.0451
4.50686 -12.7432 -90.0451
4.35146 -12.7432 -90.0451
4.19604 -12.7432 -90.0451
4.04062 -12.7432 -90.0451
3.88522 -12.7432 -90.0451
3.7298 -12.7432 -90.0451
3.57439 -12.7432 -90.0451
3.41898 -12.7432 -90.0451
3.26358 -12.7433 -90.0451
3.10816 -12.7433 -90.0451
2.95276 -12.7433 -90.0451
2.79733 -12.7433 -90.0451
2.64193 -12.7433 -90.0451
2.48651 -12.7433 -90.0451
2.3311 -12.7433 -90.0451
2.17569 -12.7433 -90.0451
2.02028 -12.7433 -90.0451
1.86487 -12.7433 -90.0451
1.70946 -12.7433 -90.0451
1.55405 -12.7433 -90.0451
1.39864 -12.7433 -90.0451
1.24323 -12.7433 -90.0451
1.08781 -12.7433 -90.0451
0.932396 -12.7433 -90.0451
0.776985 -12.7433 -90.0451
0.621582 -12.7433 -90.0451
0.466171 -12.7433 -90.0451
0.31076 -12.7433 -90.0451
0.15535 -12.7433 -90.0452
-6.10352e-005 -12.7433 -90.0452
-0.155479 -12.7433 -90.0452
-0.31089 -12.7433 -90.0452
-0.466293 -12.7433 -90.0452
-0.621712 -12.7433 -90.0452
-0.777122 -12.7433 -90.0452
-0.932533 -12.7433 -90.0452
-1.08794 -12.7433 -90.0452
-1.24335 -12.7433 -90.0452
-1.39877 -12.7433 -90.0452
-1.55418 -12.7433 -90.0452
-1.70958 -12.7433 -90.0452
-1.865 -12.7433 -90.0452
-2.0204 -12.7433 -90.0452
-2.17582 -12.7433 -90.0452
-2.33124 -12.7433 -90.0452
-2.48665 -12.7433 -90.0452
-2.64206 -12.7433 -90.0452
-2.79746 -12.7433 -90.0452
-2.95288 -12.7433 -90.0452
-3.10828 -12.7433 -90.0452
-3.2637 -12.7433 -90.0452
-3.41911 -12.7433 -90.0452
-3.57452 -12.7433 -90.0452
-3.72993 -12.7433 -90.0452
-3.88535 -12.7433 -90.0452
-4.04076 -12.7433 -90.0452
-4.19617 -12.7433 -90.0452
-4.35157 -12.7433 -90.0452
-4.50699 -12.7433 -90.0452
-4.6624 -12.7433 -90.0452
-4.81781 -12.7433 -90.0452
-4.97323 -12.7433 -90.0452
-5.12863 -12.7433 -90.0452
-5.28403 -12.7433 -90.0452
-5.43945 -12.7433 -90.0452
-5.59486 -12.7433 -90.0452
-5.75027 -12.7433 -90.0452
-5.90569 -12.7433 -90.0452
-6.0611 -12.7433 -90.0452
-6.21651 -12.7433 -90.0452
-6.37193 -12.7433 -90.0452
-6.52733 -12.7433 -90.0452
-6.68274 -12.7433 -90.0452
-6.83816 -12.7433 -90.0452
-6.99357 -12.7433 -90.0452
-7.14898 -12.7433 -90.0452
-7.30439 -12.7433 -90.0452
-7.45979 -12.7433 -90.0452
-7.6152 -12.7434 -90.0452
-7.77062 -12.7434 -90.0452
-7.92603 -12.7434 -90.0452
-8.08144 -12.7434 -90.0452
-8.23686 -12.7434 -90.0452
-8.39227 -12.7434 -90.0452
-8.54768 -12.7434 -90.0452
-8.70309 -12.7434 -90.0452
-8.85851 -12.7434 -90.0452
-9.01392 -12.7434 -90.0452
-9.16932 -12.7434 -90.0452
-9.32474 -12.7434 -90.0452
-9.48014 -12.7434 -90.0452
-9.63556 -12.7434 -90.0452
-9.79096 -12.7434 -90.0452
-9.94638 -12.7434 -90.0452
-10.1018 -12.7434 -90.0452
-10.2572 -12.7434 -90.0452
-10.4126 -12.7434 -90.0452
-10.568 -12.7434 -90.0452
-10.7234 -12.7434 -90.0452
-10.8788 -12.7434 -90.0452
-11.0343 -12.7434 -90.0452
-11.1897 -12.7434 -90.0452
-11.3451 -12.7434 -90.0452
-11.5005 -12.7434 -90.0453
-11.6559 -12.7434 -90.0453
-11.8113 -12.7434 -90.0452
-11.9667 -12.7434 -90.0452
-12.1221 -12.7434 -90.0452
-12.2775 -12.7434 -90.0453
-12.433 -12.7434 -90.0453
-12.5884 -12.7434 -90.0452
-12.7438 -12.7434 -90.0453
-12.8992 -12.7434 -90.0453
-13.0546 -12.7434 -90.0453
-13.2117 -12.7452 -90.0572
-13.3704 -12.7484 -90.0792
-13.5314 -12.7534 -90.1161
-13.6973 -12.7635 -90.1861
-13.8739 -12.7826 -90.3223
9.96054 -12.6062 -90.1746
9.78214 -12.5771 -89.9653
9.61916 -12.5673 -89.8957
9.46178 -12.5637 -89.8721
9.30589 -12.5625 -89.8644
9.15079 -12.5625 -89.8644
8.99567 -12.5625 -89.8644
8.84058 -12.5625 -89.8644
8.68548 -12.5625 -89.8644
8.53038 -12.5625 -89.8644
8.37529 -12.5625 -89.8644
8.22018 -12.5625 -89.8644
8.06509 -12.5625 -89.8644
7.90998 -12.5625 -89.8644
7.75489 -12.5625 -89.8644
7.59978 -12.5626 -89.8644
7.44469 -12.5625 -89.8644
7.2896 -12.5626 -89.8644
7.13449 -12.5626 -89.8644
6.97939 -12.5626 -89.8644
6.8243 -12.5626 -89.8644
6.66919 -12.5626 -89.8644
6.5141 -12.5626 -89.8644
6.35899 -12.5626 -89.8644
6.20389 -12.5626 -89.8644
6.0488 -12.5626 -89.8644
5.8937 -12.5626 -89.8644
5.73861 -12.5626 -89.8644
5.5835 -12.5626 -89.8645
5.42841 -12.5626 -89.8644
5.2733 -12.5626 -89.8644
5.1182 -12.5626 -89.8644
4.9631 -12.5626 -89.8644
4.80801 -12.5626 -89.8644
4.65291 -12.5626 -89.8644
4.4978 -12.5626 -89.8644
4.34271 -12.5626 -89.8645
4.18761 -12.5626 -89.8645
4.03251 -12.5626 -89.8645
3.87741 -12.5626 -89.8645
3.72231 -12.5626 -89.8645
3.56721 -12.5626 -89.8645
3.41212 -12.5626 -89.8645
3.25702 -12.5626 -89.8645
3.10191 -12.5626 -89.8645
2.94681 -12.5626 -89.8645
2.79172 -12.5626 -89.8645
2.63662 -12.5626 -89.8645
2.48152 -12.5626 -89.8645
2.32642 -12.5626 -89.8645
2.17132 -12.5626 -89.8645
2.01622 -12.5626 -89.8645
1.86112 -12.5626 -89.8645
1.70603 -12.5626 -89.8645
1.55092 -12.5626 -89.8645
1.39583 -12.5626 -89.8645
1.24072 -12.5626 -89.8645
1.08562 -12.5626 -89.8645
0.930519 -12.5626 -89.8645
0.775429 -12.5626 -89.8645
0.620323 -12.5626 -89.8645
0.465233 -12.5626 -89.8645
0.310135 -12.5626 -89.8645
0.155022 -12.5626 -89.8645
-6.86646e-005 -12.5626 -89.8645
-0.155159 -12.5626 -89.8645
-0.310272 -12.5626 -89.8645
-0.46537 -12.5626 -89.8645
-0.620461 -12.5626 -89.8645
-0.775558 -12.5626 -89.8645
-0.930664 -12.5626 -89.8645
-1.08577 -12.5626 -89.8645
-1.24087 -12.5626 -89.8645
-1.39596 -12.5626 -89.8645
-1.55106 -12.5626 -89.8645
-1.70616 -12.5626 -89.8645
-1.86127 -12.5626 -89.8645
-2.01636 -12.5626 -89.8645
-2.17146 -12.5626 -89.8645
-2.32656 -12.5626 -89.8645
-2.48166 -12.5626 -89.8645
-2.63676 -12.5626 -89.8645
-2.79186 -12.5626 -89.8645
-2.94695 -12.5626 -89.8645
-3.10205 -12.5626 -89.8645
-3.25716 -12.5626 -89.8645
-3.41225 -12.5627 -89.8645
-3.56734 -12.5627 -89.8645
-3.72246 -12.5627 -89.8645
-3.87755 -12.5627 -89.8645
-4.03265 -12.5627 -89.8645
-4.18775 -12.5627 -89.8645
-4.34284 -12.5627 -89.8645
-4.49795 -12.5627 -89.8645
-4.65305 -12.5627 -89.8645
-4.80815 -12.5627 -89.8645
-4.96326 -12.5627 -89.8645
-5.11834 -12.5627 -89.8645
-5.27345 -12.5627 -89.8645
-5.42854 -12.5627 -89.8645
-5.58365 -12.5627 -89.8645
-5.73875 -12.5627 -89.8645
-5.89384 -12.5627 -89.8645
-6.04895 -12.5627 -89.8645
-6.20404 -12.5627 -89.8645
-6.35914 -12.5627 -89.8645
-6.51424 -12.5627 -89.8645
-6.66935 -12.5627 -89.8646
-6.82443 -12.5627 -89.8645
-6.97954 -12.5627 -89.8645
-7.13464 -12.5627 -89.8645
-7.28974 -12.5627 -89.8645
-7.44484 -12.5627 -89.8645
-7.59995 -12.5627 -89.8645
-7.75504 -12.5627 -89.8646
-7.91013 -12.5627 -89.8645
-8.06524 -12.5627 -89.8645
-8.22034 -12.5627 -89.8645
-8.37543 -12.5627 -89.8646
-8.53054 -12.5627 -89.8646
-8.68563 -12.5627 -89.8646
-8.84074 -12.5627 -89.8646
-8.99583 -12.5627 -89.8646
-9.15093 -12.5627 -89.8646
-9.30604 -12.5627 -89.8646
-9.46114 -12.5627 -89.8646
-9.61623 -12.5627 -89.8646
-9.77133 -12.5627 -89.8646
-9.92643 -12.5627 -89.8646
-10.0815 -12.5627 -89.8646
-10.2366 -12.5627 -89.8646
-10.3917 -12.5627 -89.8646
-10.5468 -12.5627 -89.8646
-10.7019 -12.5627 -89.8646
-10.857 -12.5627 -89.8646
-11.0121 -12.5627 -89.8646
-11.1672 -12.5627 -89.8646
-11.3223 -12.5627 -89.8646
-11.4774 -12.5627 -89.8646
-11.6325 -12.5627 -89.8646
-11.7876 -12.5627 -89.8646
-11.9427 -12.5627 -89.8646
-12.0978 -12.5627 -89.8646
-12.2529 -12.5627 -89.8646
-12.408 -12.5627 -89.8646
-12.5631 -12.5627 -89.8646
-12.7182 -12.5627 -89.8646
-12.874 -12.5634 -89.8694
-13.031 -12.5655 -89.8829
-13.1909 -12.57 -89.9158
-13.3521 -12.5755 -89.9562
-13.5156 -12.5833 -90.0129
-13.6809 -12.5926 -90.0791
-13.8524 -12.6073 -90.1817
-14.0368 -12.6331 -90.3677
10.0759 -12.4012 -89.8156
9.91109 -12.3892 -89.7291
9.75279 -12.3843 -89.6958
9.59682 -12.3826 -89.6845
9.44202 -12.3826 -89.6845
9.28724 -12.3826 -89.6845
9.13245 -12.3826 -89.6845
8.97766 -12.3826 -89.6845
8.82288 -12.3826 -89.6845
8.66808 -12.3826 -89.6845
8.5133 -12.3826 -89.6845
8.35851 -12.3826 -89.6845
8.20372 -12.3826 -89.6845
8.04893 -12.3826 -89.6845
7.89414 -12.3826 -89.6845
7.73936 -12.3826 -89.6845
7.58458 -12.3826 -89.6845
7.42977 -12.3826 -89.6845
7.27499 -12.3826 -89.6845
7.1202 -12.3826 -89.6845
6.9654 -12.3826 -89.6845
6.81062 -12.3826 -89.6845
6.65584 -12.3826 -89.6845
6.50104 -12.3826 -89.6845
6.34626 -12.3826 -89.6845
6.19147 -12.3826 -89.6845
6.03668 -12.3826 -89.6845
5.88189 -12.3826 -89.6845
5.7271 -12.3826 -89.6845
5.57231 -12.3826 -89.6845
5.41753 -12.3826 -89.6845
5.26273 -12.3826 -89.6845
5.10795 -12.3826 -89.6845
4.95316 -12.3826 -89.6845
4.79837 -12.3826 -89.6845
4.64359 -12.3826 -89.6845
4.4888 -12.3826 -89.6845
4.33401 -12.3826 -89.6845
4.17922 -12.3826 -89.6845
4.02444 -12.3826 -89.6845
3.86964 -12.3827 -89.6845
3.71485 -12.3826 -89.6845
3.56007 -12.3826 -89.6845
3.40527 -12.3826 -89.6845
3.2505 -12.3826 -89.6845
3.09569 -12.3827 -89.6845
2.9409 -12.3827 -89.6845
2.78612 -12.3827 -89.6845
2.63133 -12.3827 -89.6845
2.47655 -12.3827 -89.6845
2.32175 -12.3827 -89.6845
2.16697 -12.3827 -89.6845
2.01218 -12.3827 -89.6845
1.85741 -12.3827 -89.6845
1.70259 -12.3827 -89.6845
1.54781 -12.3827 -89.6845
1.39302 -12.3827 -89.6845
1.23824 -12.3827 -89.6845
1.08344 -12.3827 -89.6845
0.928658 -12.3827 -89.6845
0.773865 -12.3827 -89.6845
0.619072 -12.3827 -89.6845
0.464279 -12.3827 -89.6845
0.309502 -12.3827 -89.6845
0.154709 -12.3827 -89.6846
-7.62939e-005 -12.3827 -89.6846
-0.154861 -12.3827 -89.6846
-0.309662 -12.3827 -89.6845
-0.464447 -12.3827 -89.6846
-0.619225 -12.3827 -89.6846
-0.774017 -12.3827 -89.6846
-0.928802 -12.3827 -89.6846
-1.08359 -12.3827 -89.6846
-1.23839 -12.3827 -89.6846
-1.39318 -12.3827 -89.6846
-1.54797 -12.3827 -89.6846
-1.70276 -12.3827 -89.6846
-1.85754 -12.3827 -89.6846
-2.01234 -12.3827 -89.6846
-2.16711 -12.3827 -89.6846
-2.32191 -12.3827 -89.6846
-2.4767 -12.3827 -89.6846
-2.63149 -12.3827 -89.6846
-2.78627 -12.3827 -89.6846
-2.94106 -12.3827 -89.6846
-3.09585 -12.3827 -89.6846
-3.25063 -12.3827 -89.6846
-3.40544 -12.3827 -89.6846
-3.56021 -12.3827 -89.6846
-3.71502 -12.3827 -89.6846
-3.8698 -12.3827 -89.6846
-4.02458 -12.3827 -89.6846
-4.17937 -12.3827 -89.6846
-4.33416 -12.3827 -89.6846
-4.48895 -12.3827 -89.6846
-4.64375 -12.3827 -89.6846
-4.79854 -12.3827 -89.6846
-4.95332 -12.3827 -89.6846
-5.10811 -12.3827 -89.6846
-5.26289 -12.3827 -89.6846
-5.41767 -12.3827 -89.6846
-5.57247 -12.3827 -89.6846
-5.72726 -12.3827 -89.6846
-5.88205 -12.3827 -89.6846
-6.03684 -12.3827 -89.6846
-6.19163 -12.3827 -89.6846
-6.34642 -12.3827 -89.6846
-6.50121 -12.3827 -89.6846
-6.65601 -12.3827 -89.6846
-6.81078 -12.3827 -89.6846
-6.96557 -12.3827 -89.6846
-7.12035 -12.3827 -89.6846
-7.27515 -12.3827 -89.6846
-7.42994 -12.3828 -89.6846
-7.58472 -12.3827 -89.6846
-7.73952 -12.3827 -89.6846
-7.8943 -12.3828 -89.6846
-8.0491 -12.3828 -89.6846
-8.20388 -12.3828 -89.6846
-8.35867 -12.3828 -89.6846
-8.51346 -12.3828 -89.6846
-8.66825 -12.3828 -89.6846
-8.82304 -12.3828 -89.6846
-8.97781 -12.3828 -89.6846
-9.13261 -12.3828 -89.6846
-9.28739 -12.3828 -89.6846
-9.44218 -12.3828 -89.6846
-9.59697 -12.3828 -89.6846
-9.75175 -12.3828 -89.6846
-9.90655 -12.3828 -89.6846
-10.0613 -12.3828 -89.6846
-10.2161 -12.3828 -89.6846
-10.3709 -12.3828 -89.6846
-10.5257 -12.3828 -89.6846
-10.6805 -12.3828 -89.6846
-10.8353 -12.3828 -89.6846
-10.9901 -12.3828 -89.6847
-11.1448 -12.3828 -89.6847
-11.2996 -12.3828 -89.6847
-11.4544 -12.3828 -89.6847
-11.6092 -12.3828 -89.6847
-11.764 -12.3828 -89.6846
-11.9188 -12.3828 -89.6847
-12.0736 -12.3828 -89.6847
-12.2284 -12.3828 -89.6847
-12.3832 -12.3828 -89.6847
-12.538 -12.3828 -89.6847
-12.6943 -12.3844 -89.6959
-12.852 -12.3874 -89.7166
-13.0121 -12.3922 -89.7529
-13.1742 -12.399 -89.8027
-13.3373 -12.4067 -89.8592
-13.5034 -12.417 -89.9331
-13.6705 -12.4279 -90.011
-13.841 -12.4416 -90.1096
-14.0192 -12.4617 -90.2547
-14.2402 -12.5187 -90.6691
10.3686 -12.2258 -89.6664
10.202 -12.2117 -89.5632
10.0426 -12.2057 -89.5203
9.8866 -12.2034 -89.5053
9.73212 -12.2034 -89.5053
9.57764 -12.2034 -89.5052
9.42316 -12.2034 -89.5052
