ply
format ascii 1.0
element vertex 1817
property float32 x
property float32 y
property float32 z
element face 0
property list uint8 int32 vertex_indices
end_header
1.41842 2.12743 -82.1785
1.27348 2.12225 -81.9787
1.12924 2.1171 -81.7799
0.98571 2.11198 -81.582
0.842865 2.10688 -81.3851
0.700722 2.10181 -81.1892
0.559242 2.09676 -80.9941
0.418472 2.09176 -80.8008
0.278427 2.08727 -80.6262
0.139023 2.08331 -80.4734
0.000244141 2.07968 -80.3334
-0.13826 2.0765 -80.2107
-0.27636 2.07352 -80.0973
-0.413979 2.07071 -79.9932
-0.551392 2.06836 -79.8991
-0.688652 2.0663 -79.811
-0.825623 2.06427 -79.7327
-0.962303 2.06225 -79.6595
-1.09889 2.06052 -79.5954
-1.23535 2.05896 -79.5364
-1.37174 2.05774 -79.4867
-1.50805 2.05669 -79.4425
-1.6444 2.05576 -79.4086
-1.78075 2.05486 -79.3799
-1.91754 2.05462 -79.3658
-2.05447 2.05459 -79.3565
-2.19142 2.05459 -79.3565
-2.32838 2.05458 -79.3565
-2.46545 2.05461 -79.3605
-2.60275 2.05465 -79.3708
-2.74055 2.05528 -79.3939
-2.87865 2.0562 -79.4229
-3.01736 2.05726 -79.4654
-3.1563 2.05833 -79.5105
-3.29596 2.05984 -79.5696
-3.4359 2.06144 -79.63
-3.57655 2.06347 -79.7046
-3.71751 2.06556 -79.7802
-3.85961 2.06775 -79.8711
-4.00209 2.06996 -79.964
-4.14571 2.07288 -80.0726
-4.29012 2.0759 -80.1874
-4.43582 2.07925 -80.3165
-4.58265 2.08301 -80.4619
-4.7308 2.08717 -80.6233
-4.88134 2.09199 -80.8114
-5.03388 2.09743 -81.0217
-5.18721 2.10291 -81.233
-5.34135 2.1084 -81.4455
-5.49628 2.11393 -81.6591
-5.65205 2.11948 -81.8738
-5.80862 2.12507 -82.0897
-5.96603 2.13068 -82.3067
-6.12428 2.13633 -82.5248
-6.28337 2.14201 -82.7441
-6.44329 2.14771 -82.9646
-6.60408 2.15345 -83.1862
-6.76573 2.15921 -83.4091
-6.92824 2.16501 -83.6331
-7.09164 2.17085 -83.8584
-7.25591 2.1767 -84.0848
-7.42107 2.18259 -84.3125
-7.58713 2.18852 -84.5414
-7.75408 2.19448 -84.7716
-7.92197 2.20047 -85.003
-8.09076 2.20649 -85.2357
-8.26049 2.21255 -85.4697
-8.43114 2.21864 -85.7049
-8.60274 2.22476 -85.9415
-8.77528 2.23092 -86.1793
-8.9488 2.2371 -86.4185
-9.12327 2.24333 -86.659
-9.29871 2.24959 -86.9009
-9.47514 2.25588 -87.1441
-9.65256 2.26221 -87.3887
-9.83096 2.26858 -87.6347
-10.0104 2.27497 -87.882
-10.1908 2.28141 -88.1307
-10.3723 2.28789 -88.3809
-10.5548 2.2944 -88.6325
-10.7383 2.30095 -88.8855
-10.9229 2.30753 -89.1399
-11.1086 2.31416 -89.3959
-11.2953 2.32082 -89.6533
-11.4831 2.32752 -89.9121
-11.672 2.33426 -90.1725
-11.8619 2.34104 -90.4344
-12.053 2.34785 -90.6979
-12.2452 2.35471 -90.9628
-12.4386 2.3616 -91.2293
-12.633 2.36854 -91.4974
-12.8286 2.37552 -91.7671
-13.0254 2.38255 -92.0383
-13.2234 2.38961 -92.3112
-13.4225 2.39671 -92.5857
-13.6228 2.40385 -92.8618
-13.8243 2.41105 -93.1396
-14.027 2.41828 -93.419
-14.2664 2.43179 -93.935
14.0777 2.74704 -99.4718
13.8634 2.73847 -99.1673
13.6521 2.73044 -98.8765
13.442 2.72245 -98.5874
13.2332 2.71451 -98.3
13.0256 2.70662 -98.0143
12.8191 2.69878 -97.7302
12.6139 2.69098 -97.4478
12.4099 2.68323 -97.167
12.207 2.67551 -96.8877
12.0053 2.66785 -96.6101
11.8047 2.66022 -96.3342
11.6053 2.65265 -96.0597
11.407 2.64511 -95.7868
11.2099 2.63761 -95.5155
11.0138 2.63016 -95.2457
10.8189 2.62275 -94.9774
10.625 2.61539 -94.7106
10.4323 2.60806 -94.4454
10.2406 2.60077 -94.1816
10.0499 2.59352 -93.9192
9.86039 2.58632 -93.6584
9.67188 2.57915 -93.3989
9.48441 2.57203 -93.1409
9.29797 2.56495 -92.8844
9.11256 2.55789 -92.6292
8.92817 2.55089 -92.3754
8.7448 2.54392 -92.1231
8.5624 2.53698 -91.8721
8.38101 2.53009 -91.6224
8.20058 2.52324 -91.3741
8.02115 2.51641 -91.1272
7.84267 2.50963 -90.8816
7.66518 2.50288 -90.6373
7.48862 2.49617 -90.3943
7.313 2.4895 -90.1526
7.13832 2.48286 -89.9122
6.96455 2.47625 -89.6731
6.79175 2.46968 -89.4353
6.61983 2.46315 -89.1987
6.44882 2.45665 -88.9633
6.27871 2.45018 -88.7292
6.10951 2.44375 -88.4964
5.94118 2.43736 -88.2647
5.77372 2.43099 -88.0343
5.60715 2.42466 -87.805
5.44144 2.41835 -87.577
5.27659 2.41209 -87.3501
5.11259 2.40586 -87.1244
4.94942 2.39966 -86.8999
4.7871 2.39349 -86.6765
4.62563 2.38735 -86.4543
4.46497 2.38125 -86.2332
4.30514 2.37517 -86.0132
4.1461 2.36912 -85.7943
3.98788 2.36311 -85.5766
3.83047 2.35713 -85.36
3.67385 2.35118 -85.1444
3.51802 2.34525 -84.93
3.36297 2.33936 -84.7166
3.2087 2.33349 -84.5043
3.05518 2.32766 -84.293
2.90246 2.32186 -84.0828
2.75048 2.31608 -83.8737
2.59925 2.31033 -83.6656
2.44878 2.30462 -83.4585
2.29905 2.29892 -83.2524
2.15005 2.29325 -83.0474
2.0018 2.28762 -82.8433
1.85426 2.28202 -82.6403
1.70745 2.27644 -82.4383
1.56136 2.27089 -82.2372
1.41597 2.26535 -82.0371
1.27129 2.25986 -81.838
1.12732 2.25439 -81.6399
0.984024 2.24894 -81.4427
0.841438 2.24352 -81.2464
0.699524 2.23812 -81.0512
0.558388 2.23301 -80.8659
0.417885 2.22835 -80.6964
0.278206 2.22434 -80.5509
0.139015 2.22072 -80.4203
0.000152588 2.21732 -80.2974
-0.138245 2.21433 -80.1918
-0.276199 2.21139 -80.0889
-0.414063 2.20915 -80.0003
-0.551682 2.20695 -79.9139
-0.688927 2.20479 -79.8402
-0.82592 2.20267 -79.7683
-0.962898 2.20102 -79.7091
-1.09966 2.19941 -79.6514
-1.2364 2.19828 -79.6069
-1.37302 2.19721 -79.5646
-1.50974 2.19626 -79.5359
-1.64651 2.19551 -79.5121
-1.7837 2.19546 -79.5018
-1.9209 2.19543 -79.4973
-2.0581 2.19543 -79.4973
-2.19531 2.19543 -79.4973
-2.33251 2.19543 -79.4973
-2.46972 2.19543 -79.4973
-2.60693 2.19543 -79.4973
-2.74445 2.1955 -79.5073
-2.88222 2.19579 -79.5227
-3.0206 2.19676 -79.5518
-3.15935 2.19783 -79.5878
-3.2986 2.19899 -79.6331
-3.43831 2.20039 -79.686
-3.57857 2.20208 -79.7466
-3.71933 2.20404 -79.8153
-3.8606 2.20626 -79.8911
-4.00273 2.20859 -79.976
-4.1455 2.21089 -80.0677
-4.28916 2.21376 -80.1712
-4.43358 2.21689 -80.2804
-4.57956 2.22039 -80.4078
-4.72643 2.22415 -80.5441
-4.8745 2.2284 -80.6984
-5.02512 2.23339 -80.8809
-5.17766 2.23897 -81.0835
-5.33148 2.24481 -81.2952
-5.48611 2.25069 -81.508
-5.64156 2.25659 -81.7219
-5.79783 2.26254 -81.9369
-5.95491 2.2685 -82.1531
-6.11282 2.2745 -82.3705
-6.27158 2.28053 -82.589
-6.43118 2.28659 -82.8086
-6.59163 2.29269 -83.0294
-6.75294 2.29881 -83.2514
-6.91511 2.30498 -83.4746
-7.07816 2.31118 -83.699
-7.24207 2.31741 -83.9246
-7.40689 2.32367 -84.1514
-7.57259 2.32996 -84.3794
-7.73919 2.33629 -84.6087
-7.90671 2.34266 -84.8393
-8.07513 2.34905 -85.071
-8.24448 2.35548 -85.3041
-8.41477 2.36196 -85.5385
-8.58599 2.36846 -85.7741
-8.75815 2.375 -86.011
-8.93127 2.38158 -86.2493
-9.10535 2.3882 -86.4888
-9.2804 2.39484 -86.7298
-9.45642 2.40153 -86.972
-9.63342 2.40826 -87.2156
-9.81144 2.41502 -87.4606
-9.99046 2.42182 -87.7069
-10.1705 2.42865 -87.9547
-10.3515 2.43554 -88.2038
-10.5336 2.44246 -88.4544
-10.7167 2.44941 -88.7064
-10.9008 2.45641 -88.9599
-11.0861 2.46344 -89.2147
-11.2723 2.47052 -89.4711
-11.4597 2.47764 -89.7289
-11.6481 2.48479 -89.9882
-11.8376 2.49199 -90.2491
-12.0283 2.49924 -90.5114
-12.22 2.50652 -90.7753
-12.4129 2.51385 -91.0407
-12.6068 2.52122 -91.3077
-12.802 2.52864 -91.5762
-12.9982 2.53609 -91.8464
-13.1957 2.54359 -92.1181
-13.3943 2.55114 -92.3914
-13.5941 2.55873 -92.6664
-13.7951 2.56636 -92.943
-13.9973 2.57405 -93.2212
-14.2188 2.58552 -93.6199
14.0471 2.91226 -99.256
13.8346 2.90359 -98.9615
13.6239 2.89509 -98.6719
13.4143 2.88665 -98.384
13.206 2.87823 -98.0978
12.9988 2.86989 -97.8132
12.7929 2.86159 -97.5303
12.5882 2.85334 -97.249
12.3846 2.84513 -96.9694
12.1822 2.83698 -96.6913
11.981 2.82886 -96.4148
11.7809 2.82079 -96.1399
11.582 2.81276 -95.8666
11.3841 2.80479 -95.5948
11.1874 2.79686 -95.3246
10.9919 2.78898 -95.0558
10.7974 2.78114 -94.7886
10.604 2.77334 -94.5229
10.4116 2.76558 -94.2587
10.2204 2.75787 -93.9959
10.0302 2.7502 -93.7346
9.84106 2.74258 -93.4748
9.65297 2.735 -93.2164
9.46592 2.72745 -92.9594
9.2799 2.71996 -92.7038
9.09489 2.7125 -92.4496
8.91091 2.70509 -92.1968
8.72792 2.6977 -91.9454
8.54593 2.69036 -91.6954
8.36493 2.68307 -91.4467
8.18491 2.67581 -91.1994
8.00586 2.66859 -90.9534
7.82777 2.66141 -90.7087
7.65063 2.65427 -90.4653
7.47445 2.64717 -90.2233
7.29919 2.6401 -89.9825
7.12488 2.63307 -89.743
6.9515 2.62608 -89.5048
6.77902 2.61914 -89.2679
6.60747 2.61221 -89.0321
6.43681 2.60533 -88.7977
6.26704 2.59849 -88.5645
6.09819 2.59168 -88.3324
5.93021 2.58491 -88.1017
5.76308 2.57817 -87.8721
5.59684 2.57147 -87.6437
5.43147 2.56479 -87.4164
5.26694 2.55817 -87.1904
5.10326 2.55157 -86.9655
4.94042 2.54501 -86.7418
4.77842 2.53847 -86.5192
4.61726 2.53197 -86.2978
4.45691 2.52551 -86.0775
4.29739 2.51907 -85.8583
4.13866 2.51267 -85.6403
3.98074 2.50631 -85.4233
3.82364 2.49998 -85.2074
3.6673 2.49368 -84.9927
3.51176 2.4874 -84.779
3.35701 2.48117 -84.5663
3.20303 2.47496 -84.3548
3.0498 2.46878 -84.1443
2.89735 2.46263 -83.9348
2.74564 2.45652 -83.7264
2.59471 2.45044 -83.519
2.44451 2.44438 -83.3127
2.29505 2.43835 -83.1073
2.14633 2.43236 -82.903
1.99832 2.42639 -82.6997
1.85107 2.42045 -82.4973
1.70452 2.41454 -82.296
1.55866 2.40866 -82.0956
1.41354 2.40281 -81.8962
1.26911 2.397 -81.6978
1.1254 2.3912 -81.5003
0.982361 2.38543 -81.3038
0.840012 2.37969 -81.1083
0.698517 2.37452 -80.9311
0.557732 2.36991 -80.7742
0.417709 2.3657 -80.631
0.278076 2.36208 -80.5074
0.138863 2.35865 -80.3915
0.000175476 2.35546 -80.2866
-0.138176 2.35268 -80.1906
-0.276398 2.3503 -80.1018
-0.414307 2.34798 -80.0218
-0.551857 2.34569 -79.948
-0.689255 2.34368 -79.8825
-0.826523 2.34191 -79.8231
-0.963631 2.34047 -79.7721
-1.10065 2.33926 -79.7275
-1.23768 2.33821 -79.6925
-1.37465 2.3372 -79.6637
-1.51196 2.33685 -79.6485
-1.64941 2.33678 -79.6387
-1.78687 2.33678 -79.6387
-1.92432 2.33678 -79.6387
-2.06176 2.33678 -79.6387
-2.19921 2.33678 -79.6387
-2.33666 2.33678 -79.6387
-2.47411 2.33677 -79.6387
-2.61156 2.33677 -79.6386
-2.749 2.33677 -79.6386
-2.88663 2.33683 -79.6444
-3.02448 2.33691 -79.6547
-3.16302 2.33778 -79.6811
-3.3018 2.33881 -79.7105
-3.44134 2.34008 -79.756
-3.58109 2.34135 -79.8028
-3.72165 2.34315 -79.8636
-3.8625 2.34501 -79.9264
-4.0041 2.34735 -80.0024
-4.14619 2.34978 -80.0812
-4.28934 2.35227 -80.1731
-4.43298 2.35498 -80.2701
-4.57777 2.35831 -80.3795
-4.72364 2.36185 -80.4993
-4.87062 2.36568 -80.6294
-5.01902 2.37011 -80.7811
-5.16917 2.37506 -80.951
-5.32166 2.38073 -81.1454
-5.47598 2.38694 -81.3574
-5.63111 2.3932 -81.5705
-5.78705 2.39948 -81.7848
-5.94382 2.4058 -82.0002
-6.10141 2.41215 -82.2167
-6.25983 2.41853 -82.4343
-6.4191 2.42496 -82.6532
-6.57923 2.43141 -82.8731
-6.7402 2.43789 -83.0943
-6.90203 2.44442 -83.3167
-7.06473 2.45098 -83.5402
-7.2283 2.45757 -83.7649
-7.39275 2.46419 -83.9909
-7.55811 2.47086 -84.2181
-7.72437 2.47756 -84.4465
-7.8915 2.48429 -84.6761
-8.05956 2.49106 -84.907
-8.22855 2.49787 -85.1392
-8.39845 2.50472 -85.3726
-8.56929 2.51161 -85.6073
-8.74107 2.51853 -85.8433
-8.9138 2.52549 -86.0807
-9.08749 2.53249 -86.3193
-9.26215 2.53953 -86.5593
-9.43777 2.5466 -86.8006
-9.61439 2.55372 -87.0432
-9.79199 2.56088 -87.2872
-9.9706 2.56808 -87.5326
-10.1502 2.57532 -87.7794
-10.3308 2.5826 -88.0275
-10.5125 2.58992 -88.2771
-10.6951 2.59727 -88.5281
-10.8789 2.60468 -88.7805
-11.0637 2.61213 -89.0344
-11.2495 2.61961 -89.2897
-11.4364 2.62715 -89.5465
-11.6244 2.63473 -89.8047
-11.8134 2.64234 -90.0645
-12.0036 2.65001 -90.3258
-12.1949 2.65772 -90.5886
-12.3872 2.66547 -90.8529
-12.5807 2.67327 -91.1187
-12.7754 2.68111 -91.3862
-12.9712 2.689 -91.6552
-13.1682 2.69693 -91.9258
-13.3663 2.70492 -92.198
-13.5656 2.71296 -92.4718
-13.766 2.72104 -92.7472
-13.9677 2.72916 -93.0243
-14.1826 2.74006 -93.3819
14.2613 3.09302 -99.5558
14.0175 3.07703 -99.0467
13.806 3.06802 -98.7566
13.5957 3.05906 -98.4682
13.3867 3.05015 -98.1815
13.1789 3.04129 -97.8964
12.9722 3.03249 -97.613
12.7668 3.02374 -97.3313
12.5626 3.01502 -97.0511
12.3595 3.00637 -96.7726
12.1576 2.99777 -96.4956
11.9568 2.98922 -96.2203
11.7572 2.9807 -95.9465
11.5587 2.97225 -95.6742
11.3614 2.96384 -95.4035
11.1651 2.95548 -95.1344
10.97 2.94716 -94.8667
10.7759 2.93889 -94.6006
10.583 2.93067 -94.3359
10.3911 2.92249 -94.0727
10.2003 2.91435 -93.811
10.0105 2.90627 -93.5507
9.82182 2.89822 -93.2919
9.63414 2.89024 -93.0345
9.4475 2.88227 -92.7785
9.26191 2.87436 -92.5239
9.0773 2.8665 -92.2707
8.89371 2.85868 -92.0189
8.71112 2.85089 -91.7685
8.52954 2.84315 -91.5194
8.34892 2.83546 -91.2717
8.16929 2.8278 -91.0253
7.99062 2.82019 -90.7802
7.8129 2.81261 -90.5365
7.63615 2.80508 -90.2941
7.46033 2.79759 -90.0529
7.28545 2.79014 -89.813
7.1115 2.78273 -89.5744
6.93847 2.77535 -89.3371
6.76636 2.76802 -89.101
6.59516 2.76072 -88.8662
6.42485 2.75346 -88.6326
6.25544 2.74624 -88.4003
6.08691 2.73907 -88.1691
5.91925 2.73192 -87.9392
5.75249 2.72481 -87.7104
5.58658 2.71774 -87.4829
5.42152 2.71071 -87.2565
5.25733 2.70371 -87.0313
5.09396 2.69674 -86.8072
4.93146 2.68982 -86.5843
4.76978 2.68293 -86.3625
4.60892 2.67607 -86.1419
4.44888 2.66925 -85.9224
4.28965 2.66247 -85.704
4.13123 2.65571 -85.4867
3.97363 2.649 -85.2705
3.81681 2.64232 -85.0555
3.66077 2.63567 -84.8414
3.50553 2.62906 -84.6285
3.35105 2.62247 -84.4166
3.19736 2.61592 -84.2058
3.04443 2.6094 -83.9961
2.89226 2.60292 -83.7874
2.74084 2.59647 -83.5797
2.59017 2.59005 -83.373
2.44025 2.58366 -83.1674
2.29105 2.5773 -82.9627
2.14259 2.57097 -82.7591
1.99487 2.56468 -82.5565
1.84786 2.55841 -82.3549
1.70158 2.55217 -82.1542
1.55599 2.54597 -81.9545
1.41113 2.53979 -81.7558
1.26694 2.53365 -81.5581
1.12346 2.52754 -81.3613
0.980797 2.52168 -81.1726
0.838875 2.5163 -80.9988
0.697853 2.51175 -80.8522
0.557465 2.50758 -80.7186
0.41745 2.50372 -80.5947
0.277954 2.5003 -80.4867
0.138947 2.49693 -80.3817
0.000160217 2.49435 -80.2925
-0.13839 2.49182 -80.2043
-0.276558 2.48939 -80.1301
-0.414406 2.48698 -80.0567
-0.552177 2.4851 -79.997
-0.689758 2.48324 -79.9379
-0.827187 2.48195 -79.8932
-0.964508 2.48071 -79.8497
-1.10187 2.47966 -79.8207
-1.2392 2.47877 -79.7958
-1.37695 2.47868 -79.7855
-1.51465 2.47863 -79.7805
-1.65234 2.47863 -79.7805
-1.79004 2.47863 -79.7805
-1.92773 2.47863 -79.7805
-2.06543 2.47863 -79.7805
-2.20313 2.47862 -79.7805
-2.34081 2.47862 -79.7805
-2.47851 2.47862 -79.7805
-2.61621 2.47862 -79.7805
-2.7539 2.47862 -79.7805
-2.89159 2.47862 -79.7805
-3.02933 2.47866 -79.7819
-3.16741 2.47876 -79.7922
-3.30591 2.47926 -79.8109
-3.44495 2.48033 -79.8401
-3.5845 2.48161 -79.8792
-3.72451 2.48293 -79.9248
-3.86514 2.48462 -79.9809
-4.00625 2.48653 -80.0419
-4.14801 2.48883 -80.1139
-4.29024 2.49133 -80.1903
-4.43356 2.49402 -80.2789
-4.57735 2.49666 -80.3712
-4.72232 2.50008 -80.4789
-4.86804 2.50366 -80.5911
-5.01542 2.50769 -80.7215
-5.16383 2.5121 -80.864
-5.31346 2.51698 -81.0211
-5.46609 2.52281 -81.2107
-5.6207 2.5293 -81.4197
-5.77633 2.53593 -81.6332
-5.93278 2.54259 -81.8477
-6.09004 2.54929 -82.0634
-6.24815 2.55602 -82.2803
-6.40708 2.56279 -82.4983
-6.56687 2.5696 -82.7175
-6.7275 2.57644 -82.9378
-6.889 2.58332 -83.1593
-7.05135 2.59024 -83.382
-7.21458 2.59719 -83.6059
-7.37868 2.60418 -83.831
-7.54368 2.61121 -84.0573
-7.70956 2.61828 -84.2848
-7.87635 2.62539 -84.5136
-8.04405 2.63253 -84.7436
-8.21266 2.63971 -84.9749
-8.3822 2.64693 -85.2074
-8.55267 2.6542 -85.4412
-8.72406 2.6615 -85.6763
-8.89641 2.66883 -85.9127
-9.06972 2.67622 -86.1504
-9.24398 2.68365 -86.3894
-9.41921 2.69111 -86.6298
-9.59542 2.69862 -86.8715
-9.77262 2.70617 -87.1145
-9.95082 2.71376 -87.3589
-10.13 2.7214 -87.6047
-10.3102 2.72906 -87.8519
-10.4914 2.73678 -88.1005
-10.6737 2.74455 -88.3505
-10.857 2.75237 -88.6019
-11.0413 2.76021 -88.8547
-11.2267 2.76811 -89.109
-11.4132 2.77605 -89.3647
-11.6007 2.78404 -89.6219
-11.7893 2.79208 -89.8807
-11.979 2.80015 -90.1409
-12.1698 2.80829 -90.4026
-12.3617 2.81646 -90.6658
-12.5548 2.82469 -90.9306
-12.7489 2.83295 -91.1969
-12.9443 2.84127 -91.4648
-13.1407 2.84965 -91.7343
-13.3383 2.85806 -92.0053
-13.5371 2.86654 -92.278
-13.7371 2.87506 -92.5523
-13.9383 2.88362 -92.8282
-14.1467 2.89372 -93.1453
14.2168 3.25468 -99.2459
13.9884 3.24125 -98.8414
13.7775 3.23177 -98.5525
13.5677 3.22235 -98.2653
13.3592 3.21299 -97.9797
13.1519 3.20368 -97.6958
12.9458 3.19442 -97.4136
12.7408 3.18522 -97.133
12.537 3.17607 -96.854
12.3345 3.16697 -96.5766
12.133 3.15792 -96.3008
11.9328 3.14893 -96.0265
11.7336 3.13999 -95.7538
11.5356 3.1311 -95.4827
11.3387 3.12225 -95.2131
11.1429 3.11346 -94.945
10.9482 3.10472 -94.6784
10.7546 3.09602 -94.4133
10.5621 3.08737 -94.1496
10.3706 3.07878 -93.8875
10.1802 3.07023 -93.6268
9.99091 3.06172 -93.3676
9.80263 3.05328 -93.1097
9.61537 3.04486 -92.8533
9.42915 3.0365 -92.5983
9.24397 3.02818 -92.3447
9.05978 3.01991 -92.0925
8.87658 3.01168 -91.8417
8.69439 3.00349 -91.5922
8.51319 2.99537 -91.3441
8.33296 2.98727 -91.0973
8.15371 2.97922 -90.8519
7.97543 2.97121 -90.6077
7.7981 2.96325 -90.3649
7.62171 2.95532 -90.1234
7.44627 2.94745 -89.8831
7.27175 2.93961 -89.6442
7.09818 2.93181 -89.4065
6.9255 2.92406 -89.1701
6.75375 2.91635 -88.9349
6.58289 2.90868 -88.7009
6.41293 2.90104 -88.4682
6.24387 2.89345 -88.2367
6.07568 2.8859 -88.0064
5.90837 2.87838 -87.7773
5.74191 2.87091 -87.5494
5.57634 2.86348 -87.3226
5.41163 2.85608 -87.0971
5.24775 2.84872 -86.8727
5.0847 2.84139 -86.6495
4.92252 2.83411 -86.4274
4.76115 2.82687 -86.2064
4.6006 2.81966 -85.9866
4.44089 2.81248 -85.7679
4.28196 2.80535 -85.5503
4.12385 2.79824 -85.3337
3.96654 2.79118 -85.1183
3.81001 2.78415 -84.904
3.65427 2.77716 -84.6908
3.49932 2.7702 -84.4786
3.34515 2.76328 -84.2675
3.19173 2.75639 -84.0574
3.03909 2.74953 -83.8484
2.88719 2.74271 -83.6404
2.73604 2.73592 -83.4334
2.58565 2.72917 -83.2275
2.436 2.72245 -83.0226
2.28708 2.71576 -82.8187
2.13888 2.70911 -82.6157
1.99141 2.70248 -82.4138
1.84467 2.69589 -82.2129
1.69865 2.68933 -82.0129
1.55332 2.68281 -81.8139
1.40871 2.67631 -81.6159
1.26478 2.66985 -81.4188
1.12181 2.66395 -81.2383
0.979599 2.65866 -81.0772
0.838257 2.65387 -80.9308
0.697517 2.64977 -80.8063
0.557114 2.64587 -80.6878
0.417381 2.6423 -80.5822
0.278069 2.63909 -80.4842
0.138855 2.63638 -80.3947
1.52588e-005 2.63375 -80.313
-0.138412 2.63119 -80.2387
-0.276649 2.62889 -80.1717
-0.414726 2.62691 -80.1119
-0.552589 2.62524 -80.0595
-0.690331 2.62386 -80.0146
-0.828011 2.62269 -79.9785
-0.96563 2.62157 -79.9494
-1.10348 2.62111 -79.9333
-1.24147 2.62099 -79.9229
-1.37941 2.62099 -79.9229
-1.51735 2.62098 -79.9229
-1.65529 2.62098 -79.9229
-1.79324 2.62098 -79.9229
-1.93117 2.62099 -79.9229
-2.06911 2.62098 -79.9229
-2.20705 2.62098 -79.9229
-2.34499 2.62098 -79.9229
-2.48292 2.62098 -79.9229
-2.62087 2.62098 -79.9229
-2.75882 2.62098 -79.9229
-2.89675 2.62097 -79.9228
-3.0347 2.62097 -79.9228
-3.17262 2.62097 -79.9229
-3.31084 2.62109 -79.9303
-3.44924 2.62122 -79.941
-3.58857 2.62233 -79.9704
-3.72812 2.62356 -80.0029
-3.86842 2.62497 -80.0486
-4.00906 2.6265 -80.0985
-4.15048 2.62852 -80.1597
-4.29233 2.63072 -80.2258
-4.43488 2.63336 -80.3024
-4.57816 2.63614 -80.3849
-4.72231 2.63896 -80.4775
-4.86723 2.64222 -80.5785
-5.01317 2.64594 -80.6889
-5.16055 2.65002 -80.8137
-5.30894 2.6544 -80.947
-5.45886 2.65949 -81.1028
-5.61113 2.66531 -81.2813
-5.76564 2.67186 -81.4821
-5.92177 2.67887 -81.6959
-6.07871 2.68592 -81.9108
-6.23649 2.693 -82.1268
-6.3951 2.70012 -82.344
-6.55455 2.70728 -82.5624
-6.71485 2.71447 -82.7819
-6.87601 2.72171 -83.0026
-7.03802 2.72898 -83.2244
-7.2009 2.7363 -83.4475
-7.36466 2.74364 -83.6717
-7.5293 2.75104 -83.8971
-7.69485 2.75847 -84.1238
-7.86127 2.76594 -84.3517
-8.02861 2.77345 -84.5808
-8.19685 2.78101 -84.8112
-8.36601 2.7886 -85.0428
-8.5361 2.79624 -85.2758
-8.70713 2.80391 -85.51
-8.8791 2.81163 -85.7454
-9.05201 2.8194 -85.9822
-9.22589 2.8272 -86.2203
-9.40073 2.83504 -86.4597
-9.57652 2.84294 -86.7004
-9.75333 2.85088 -86.9425
-9.93111 2.85886 -87.186
-10.1099 2.86689 -87.4308
-10.2897 2.87496 -87.677
-10.4705 2.88307 -87.9246
-10.6523 2.89123 -88.1736
-10.8352 2.89944 -88.4239
-11.0191 2.9077 -88.6758
-11.204 2.916 -88.929
-11.3901 2.92435 -89.1838
-11.5771 2.93275 -89.4399
-11.7653 2.94119 -89.6976
-11.9545 2.94969 -89.9567
-12.1449 2.95824 -90.2174
-12.3363 2.96684 -90.4795
-12.5289 2.97548 -90.7432
-12.7226 2.98417 -91.0084
-12.9174 2.99292 -91.2752
-13.1134 3.00172 -91.5436
-13.3105 3.01057 -91.8135
-13.5088 3.01946 -92.085
-13.7083 3.02842 -92.3582
-13.909 3.03743 -92.6329
-14.1143 3.04734 -92.9323
14.182 3.4174 -99.0028
13.9595 3.40478 -98.6369
13.749 3.39484 -98.3492
13.5398 3.38497 -98.0632
13.3318 3.37516 -97.7788
13.125 3.3654 -97.4961
12.9193 3.3557 -97.215
12.7149 3.34604 -96.9355
12.5116 3.33645 -96.6577
12.3095 3.32691 -96.3814
12.1086 3.31744 -96.1067
11.9088 3.30801 -95.8335
11.7101 3.29863 -95.5619
11.5125 3.2893 -95.2919
11.3161 3.28003 -95.0233
11.1207 3.27082 -94.7563
10.9265 3.26165 -94.4908
10.7333 3.25253 -94.2267
10.5413 3.24346 -93.9641
10.3503 3.23445 -93.703
10.1603 3.22548 -93.4433
9.97139 3.21657 -93.1851
9.78352 3.20771 -92.9283
9.59669 3.19889 -92.6729
9.41089 3.19012 -92.4189
9.2261 3.1814 -92.1662
9.0423 3.17273 -91.915
8.85951 3.1641 -91.6652
8.67773 3.15552 -91.4166
8.49692 3.14698 -91.1694
8.31708 3.1385 -90.9236
8.13821 3.13005 -90.6791
7.96031 3.12166 -90.4359
7.78335 3.11331 -90.194
7.60734 3.105 -89.9534
7.43226 3.09674 -89.714
7.25811 3.08853 -89.476
7.08488 3.08035 -89.2392
6.91257 3.07222 -89.0036
6.74117 3.06413 -88.7693
6.57066 3.05608 -88.5362
6.40106 3.04807 -88.3044
6.23233 3.04011 -88.0737
6.06448 3.03219 -87.8443
5.89751 3.02431 -87.616
5.7314 3.01648 -87.389
5.56615 3.00868 -87.1631
5.40176 3.00092 -86.9383
5.2382 2.99319 -86.7147
5.07549 2.98552 -86.4923
4.91361 2.97788 -86.271
4.75256 2.97028 -86.0509
4.59233 2.96272 -85.8318
4.43291 2.95519 -85.6139
4.27429 2.94771 -85.397
4.11649 2.94026 -85.1813
3.95947 2.93285 -84.9667
3.80324 2.92548 -84.7531
3.64779 2.91814 -84.5406
3.49313 2.91084 -84.3292
3.33923 2.90359 -84.1188
3.1861 2.89636 -83.9095
3.03374 2.88916 -83.7012
2.88213 2.88201 -83.4939
2.73126 2.87489 -83.2877
2.58115 2.8678 -83.0825
2.43176 2.86075 -82.8783
2.28312 2.85374 -82.6751
2.13519 2.84676 -82.4729
1.98798 2.83982 -82.2716
1.8415 2.8329 -82.0714
1.69573 2.82602 -81.8721
1.55067 2.81917 -81.6738
1.40643 2.81255 -81.4817
1.26302 2.80645 -81.3041
1.12067 2.80131 -81.1558
0.97905 2.79658 -81.0191
0.83786 2.79226 -80.8943
0.697235 2.78839 -80.7838
0.557159 2.78463 -80.6779
0.41745 2.78165 -80.5868
0.277916 2.77877 -80.4972
0.138832 2.77607 -80.4221
8.39233e-005 2.77337 -80.3475
-0.138489 2.77122 -80.287
-0.276871 2.76913 -80.227
-0.415024 2.76767 -80.1815
-0.553062 2.76624 -80.1368
-0.691071 2.76511 -80.1077
-0.829002 2.76406 -80.0816
-0.967278 2.76392 -80.0712
-1.10551 2.76386 -80.0657
-1.2437 2.76386 -80.0657
-1.38187 2.76385 -80.0657
-1.52007 2.76385 -80.0657
-1.65825 2.76385 -80.0657
-1.79643 2.76385 -80.0657
-1.93462 2.76385 -80.0657
-2.07281 2.76384 -80.0657
-2.211 2.76384 -80.0657
-2.34919 2.76384 -80.0657
-2.48736 2.76384 -80.0657
-2.62556 2.76384 -80.0657
-2.76374 2.76384 -80.0657
-2.90192 2.76384 -80.0657
-3.04011 2.76384 -80.0657
-3.17829 2.76384 -80.0657
-3.31649 2.76384 -80.0657
-3.45479 2.76392 -80.0688
-3.59342 2.76405 -80.0792
-3.73268 2.76479 -80.1011
-3.87237 2.76598 -80.1306
-4.01279 2.76746 -80.1728
-4.15354 2.76895 -80.2187
-4.29515 2.77095 -80.2779
-4.4371 2.7731 -80.3394
-4.57993 2.77578 -80.4148
-4.72308 2.77856 -80.4917
-4.86765 2.78162 -80.584
-5.01257 2.78469 -80.6785
-5.15881 2.78862 -80.789
-5.30602 2.79269 -80.9062
-5.45467 2.79724 -81.0376
-5.60471 2.80235 -81.1863
-5.75641 2.80805 -81.352
-5.9108 2.81465 -81.5446
-6.06743 2.82204 -81.7587
-6.22488 2.82946 -81.974
-6.38316 2.83693 -82.1904
-6.54228 2.84444 -82.4079
-6.70226 2.85199 -82.6265
-6.86307 2.85958 -82.8464
-7.02475 2.8672 -83.0674
-7.18729 2.87487 -83.2896
-7.3507 2.88258 -83.513
-7.515 2.89033 -83.7376
-7.68018 2.89812 -83.9634
-7.84624 2.90595 -84.1904
-8.01321 2.91383 -84.4187
-8.18109 2.92176 -84.6482
-8.34988 2.92971 -84.8789
-8.51959 2.93772 -85.1109
-8.69025 2.94577 -85.3442
-8.86183 2.95387 -85.5788
-9.03436 2.962 -85.8146
-9.20786 2.97019 -86.0518
-9.3823 2.97842 -86.2903
-9.55771 2.98669 -86.5301
-9.73412 2.99502 -86.7712
-9.91149 3.00339 -87.0137
-10.0899 3.0118 -87.2576
-10.2692 3.02026 -87.5028
-10.4496 3.02877 -87.7494
-10.631 3.03733 -87.9974
-10.8135 3.04594 -88.2467
-10.9969 3.05459 -88.4976
-11.1815 3.0633 -88.7498
-11.367 3.07205 -89.0035
-11.5537 3.08086 -89.2586
-11.7414 3.08971 -89.5152
-11.9302 3.09862 -89.7733
-12.1201 3.10758 -90.0329
-12.311 3.11659 -90.294
-12.5031 3.12565 -90.5566
-12.6964 3.13476 -90.8207
-12.8907 3.14393 -91.0864
-13.0862 3.15315 -91.3537
-13.2828 3.16243 -91.6225
-13.4806 3.17177 -91.8929
-13.6796 3.18114 -92.1649
-13.8798 3.1906 -92.4385
-14.0832 3.20062 -92.7276
14.1473 3.57943 -98.7608
13.9307 3.56765 -98.4333
13.7207 3.55725 -98.1468
13.512 3.54693 -97.8619
13.3045 3.53666 -97.5787
13.0982 3.52646 -97.2972
12.8931 3.51631 -97.0172
12.6891 3.50622 -96.7389
12.4863 3.49618 -96.4621
12.2847 3.48621 -96.187
12.0842 3.4763 -95.9134
11.8849 3.46643 -95.6413
11.6867 3.45663 -95.3708
11.4896 3.44687 -95.1018
11.2936 3.43718 -94.8343
11.0987 3.42754 -94.5684
10.9049 3.41795 -94.3039
10.7122 3.40842 -94.0409
10.5205 3.39894 -93.7793
10.33 3.38951 -93.5192
10.1404 3.38014 -93.2606
9.95193 3.37081 -93.0033
9.7645 3.36154 -92.7475
9.57808 3.35232 -92.4931
9.39268 3.34315 -92.2401
9.2083 3.33402 -91.9884
9.02491 3.32495 -91.7382
8.84253 3.31593 -91.4893
8.66113 3.30696 -91.2417
8.4807 3.29803 -90.9955
8.30125 3.28915 -90.7506
8.12276 3.28032 -90.507
7.94524 3.27155 -90.2647
7.76866 3.26281 -90.0237
7.593 3.25412 -89.784
7.4183 3.24547 -89.5456
7.24451 3.23688 -89.3084
7.07166 3.22832 -89.0725
6.8997 3.21983 -88.8378
6.72865 3.21136 -88.6044
6.55849 3.20294 -88.3721
6.38923 3.19457 -88.1412
6.22085 3.18624 -87.9114
6.05334 3.17795 -87.6828
5.8867 3.1697 -87.4553
5.72092 3.16151 -87.2291
5.556 3.15335 -87.004
5.39193 3.14524 -86.7801
5.22871 3.13716 -86.5573
5.0663 3.12912 -86.3357
4.90474 3.12113 -86.1152
4.744 3.11317 -85.8958
4.58408 3.10527 -85.6776
4.42496 3.0974 -85.4604
4.26665 3.08957 -85.2444
4.10915 3.08178 -85.0294
3.95242 3.07402 -84.8155
3.79649 3.06631 -84.6027
3.64133 3.05863 -84.391
3.48696 3.051 -84.1803
3.33337 3.0434 -83.9707
3.18052 3.03584 -83.7621
3.02842 3.02831 -83.5545
2.8771 3.02082 -83.348
2.72651 3.01337 -83.1425
2.57667 3.00596 -82.938
2.42754 2.99858 -82.7345
2.27915 2.99125 -82.532
2.1315 2.98394 -82.3305
1.98457 2.97667 -82.1299
1.83833 2.96943 -81.9304
1.69283 2.96224 -81.7318
1.54829 2.95559 -81.5478
1.40464 2.9496 -81.3825
1.262 2.94424 -81.2346
1.12006 2.93961 -81.1075
0.978508 2.93522 -80.9864
0.837692 2.93126 -80.88
0.697342 2.9276 -80.7799
0.557175 2.92456 -80.6898
0.417351 2.92162 -80.6063
0.27803 2.91879 -80.5315
0.138954 2.91618 -80.4629
5.34058e-005 2.91398 -80.4027
-0.138557 2.91206 -80.349
-0.277039 2.91053 -80.3038
-0.41539 2.90921 -80.2665
-0.553665 2.90799 -80.2373
-0.692062 2.90739 -80.2201
-0.830612 2.90724 -80.2096
-0.969055 2.90723 -80.2091
-1.10748 2.90723 -80.2091
-1.24591 2.90723 -80.2091
-1.38436 2.90723 -80.2091
-1.52278 2.90723 -80.2091
-1.66122 2.90723 -80.2091
-1.79965 2.90722 -80.2091
-1.93808 2.90722 -80.2091
-2.07652 2.90722 -80.2091
-2.21495 2.90722 -80.2091
-2.35339 2.90722 -80.2091
-2.49182 2.90722 -80.2091
-2.63026 2.90722 -80.2091
-2.76869 2.90722 -80.2091
-2.90712 2.90721 -80.2091
-3.04555 2.90721 -80.2091
-3.18399 2.90721 -80.2091
-3.32243 2.90721 -80.2091
-3.46085 2.90721 -80.2091
-3.59929 2.90721 -80.2091
-3.73811 2.9074 -80.2182
-3.87724 2.90773 -80.2322
-4.01722 2.90896 -80.2618
-4.1576 2.9104 -80.2973
-4.29865 2.91196 -80.3434
-4.44024 2.91379 -80.3964
-4.5825 2.91605 -80.4581
-4.72539 2.91859 -80.5275
-4.86888 2.92152 -80.6046
-5.0134 2.92467 -80.6908
-5.15861 2.92783 -80.7841
-5.30482 2.93165 -80.8894
-5.45193 2.93579 -81.0006
-5.60089 2.94046 -81.1305
-5.75086 2.94551 -81.27
-5.90224 2.95119 -81.427
-6.05669 2.95793 -81.6143
-6.21332 2.96542 -81.8217
-6.37128 2.97324 -82.0372
-6.53006 2.98109 -82.2539
-6.6897 2.98899 -82.4718
-6.85019 2.99693 -82.6908
-7.01153 3.0049 -82.911
-7.17372 3.01292 -83.1324
-7.33679 3.02098 -83.3549
-7.50074 3.02909 -83.5787
-7.66556 3.03724 -83.8036
-7.83127 3.04544 -84.0298
-7.99787 3.05368 -84.2572
-8.16539 3.06196 -84.4858
-8.33382 3.0703 -84.7157
-8.50317 3.07866 -84.9468
-8.67345 3.08709 -85.1791
-8.84466 3.09555 -85.4128
-9.01679 3.10407 -85.6477
-9.1899 3.11263 -85.884
-9.36395 3.12123 -86.1215
-9.53896 3.12989 -86.3604
-9.71498 3.1386 -86.6006
-9.89194 3.14735 -86.8421
-10.0699 3.15615 -87.085
-10.2489 3.16499 -87.3292
-10.4288 3.1739 -87.5749
-10.6098 3.18285 -87.8219
-10.7918 3.19185 -88.0703
-10.9749 3.2009 -88.3201
-11.159 3.21 -88.5713
-11.3441 3.21915 -88.824
-11.5303 3.22836 -89.0781
-11.7175 3.23762 -89.3336
-11.9059 3.24694 -89.5907
-12.0953 3.25631 -89.8492
-12.2859 3.26573 -90.1092
-12.4775 3.27521 -90.3708
-12.6702 3.28474 -90.6338
-12.8641 3.29433 -90.8984
-13.0591 3.30397 -91.1645
-13.2553 3.31367 -91.4322
-13.4526 3.32343 -91.7015
-13.651 3.33324 -91.9724
-13.8507 3.34312 -92.2448
-14.0522 3.35324 -92.5237
14.1158 3.74159 -98.5405
13.902 3.72983 -98.2305
13.6926 3.71899 -97.9452
13.4843 3.70822 -97.6615
13.2773 3.69751 -97.3795
13.0715 3.68687 -97.0991
12.8669 3.67628 -96.8202
12.6634 3.66574 -96.543
12.4611 3.65528 -96.2674
12.26 3.64487 -95.9933
12.06 3.63453 -95.7208
11.8611 3.62424 -95.4499
11.6633 3.61401 -95.1804
11.4667 3.60383 -94.9125
11.2712 3.59371 -94.6461
11.0767 3.58365 -94.3812
10.8834 3.57365 -94.1177
10.6911 3.5637 -93.8558
10.4999 3.55381 -93.5953
10.3097 3.54397 -93.3362
10.1206 3.53419 -93.0785
9.93257 3.52446 -92.8223
9.74554 3.51478 -92.5675
9.55955 3.50515 -92.3141
9.37454 3.49559 -92.062
9.19057 3.48606 -91.8113
9.00759 3.4766 -91.562
8.82559 3.46719 -91.3141
8.64459 3.45782 -91.0675
8.46455 3.4485 -90.8222
8.28548 3.43924 -90.5782
8.10738 3.43002 -90.3355
7.93022 3.42086 -90.0942
7.75401 3.41175 -89.8541
7.57874 3.40268 -89.6153
7.4044 3.39365 -89.3777
7.23098 3.38468 -89.1414
7.05847 3.37576 -88.9064
6.88686 3.36687 -88.6726
6.71617 3.35804 -88.44
6.54636 3.34926 -88.2087
6.37744 3.34052 -87.9785
6.2094 3.33182 -87.7496
6.04222 3.32317 -87.5218
5.87592 3.31457 -87.2952
5.71048 3.30601 -87.0698
5.54588 3.29749 -86.8456
5.38213 3.28902 -86.6225
5.21923 3.28059 -86.4005
5.05716 3.27221 -86.1797
4.8959 3.26386 -85.96
4.73547 3.25556 -85.7414
4.57584 3.24731 -85.5239
4.41704 3.23909 -85.3075
4.25904 3.23092 -85.0923
4.10183 3.22278 -84.8781
3.94541 3.21469 -84.665
3.78976 3.20663 -84.4529
3.6349 3.19862 -84.2419
3.48081 3.19065 -84.032
3.32749 3.18272 -83.8231
3.17494 3.17482 -83.6152
3.02313 3.16697 -83.4084
2.87208 3.15915 -83.2026
2.72176 3.15137 -82.9978
2.57218 3.14364 -82.794
2.42334 3.13594 -82.5912
2.27523 3.12827 -82.3894
2.12784 3.12065 -82.1886
1.98115 3.11306 -81.9887
1.83528 3.10563 -81.793
1.69043 3.09887 -81.6141
1.54665 3.09306 -81.4617
1.40378 3.08773 -81.3218
1.2614 3.08295 -81.196
1.11962 3.07862 -81.0831
0.978477 3.07446 -80.9764
0.837784 3.07105 -80.8833
0.697273 3.06785 -80.793
0.557251 3.06485 -80.7162
0.417603 3.06187 -80.6411
0.278206 3.05946 -80.5791
0.139015 3.05714 -80.5187
0.000144958 3.05545 -80.4719
-0.138634 3.05383 -80.4265
-0.27729 3.05262 -80.3966
-0.415848 3.05141 -80.3695
-0.554665 3.05122 -80.359
-0.693413 3.05112 -80.353
-0.8321 3.05113 -80.353
-0.970795 3.05113 -80.353
-1.10946 3.05112 -80.353
-1.24815 3.05112 -80.353
-1.38683 3.05112 -80.353
-1.52551 3.05111 -80.353
-1.66421 3.05112 -80.353
-1.80287 3.05111 -80.353
-1.94156 3.05111 -80.353
-2.08025 3.05111 -80.353
-2.21893 3.05111 -80.353
-2.3576 3.05111 -80.353
-2.49628 3.05111 -80.353
-2.63497 3.05111 -80.353
-2.77366 3.05111 -80.353
-2.91234 3.0511 -80.353
-3.05101 3.05111 -80.353
-3.1897 3.05111 -80.353
-3.32838 3.0511 -80.353
-3.46706 3.05109 -80.353
-3.60575 3.05109 -80.353
-3.74443 3.0511 -80.353
-3.88332 3.05124 -80.3577
-4.02251 3.05141 -80.3683
-4.16255 3.05241 -80.3935
-4.30292 3.0537 -80.4232
-4.44423 3.05542 -80.4685
-4.58578 3.0571 -80.5153
-4.72836 3.05943 -80.5772
-4.87124 3.06184 -80.6405
-5.0151 3.06488 -80.7179
-5.15942 3.06803 -80.7978
-5.30506 3.07142 -80.8914
-5.45124 3.07504 -80.9901
-5.59869 3.07939 -81.1015
-5.74743 3.08403 -81.2237
-5.8974 3.08906 -81.3561
-6.04913 3.09492 -81.5113
-6.20296 3.10152 -81.6856
-6.35943 3.10903 -81.8847
-6.5179 3.11723 -82.1006
-6.67719 3.12547 -82.3176
-6.83734 3.13374 -82.5358
-6.99834 3.14208 -82.7552
-7.1602 3.15045 -82.9757
-7.32292 3.15887 -83.1974
-7.48652 3.16733 -83.4203
-7.65099 3.17584 -83.6444
-7.81636 3.18439 -83.8697
-7.9826 3.19299 -84.0963
-8.14976 3.20163 -84.324
-8.31783 3.21032 -84.553
-8.4868 3.21907 -84.7832
-8.6567 3.22785 -85.0147
-8.82753 3.23669 -85.2474
-8.9993 3.24557 -85.4815
-9.17201 3.2545 -85.7168
-9.34568 3.26348 -85.9534
-9.52031 3.27252 -86.1914
-9.69591 3.2816 -86.4306
-9.87247 3.29074 -86.6712
-10.05 3.29992 -86.9131
-10.2286 3.30915 -87.1564
-10.4081 3.31844 -87.401
-10.5887 3.32779 -87.6471
-10.7703 3.33717 -87.8945
-10.9529 3.34662 -88.1433
-11.1366 3.35612 -88.3935
-11.3213 3.36567 -88.6451
-11.507 3.37528 -88.8982
-11.6938 3.38494 -89.1528
-11.8817 3.39466 -89.4088
-12.0707 3.40443 -89.6662
-12.2608 3.41426 -89.9252
-12.4519 3.42416 -90.1857
-12.6442 3.43409 -90.4476
-12.8376 3.4441 -90.7112
-13.0321 3.45416 -90.9762
-13.2278 3.46429 -91.2428
-13.4246 3.47446 -91.5109
-13.6226 3.48471 -91.7807
-13.8217 3.495 -92.052
-14.0221 3.50537 -92.325
-14.2548 3.52374 -92.8032
14.0856 3.90337 -98.3286
13.8734 3.89135 -98.0286
13.6645 3.88007 -97.7444
13.4568 3.86886 -97.4619
13.2503 3.8577 -97.181
13.045 3.84661 -96.9017
12.8408 3.83559 -96.624
12.6378 3.82463 -96.348
12.436 3.81373 -96.0734
12.2353 3.80289 -95.8005
12.0358 3.79212 -95.5291
11.8374 3.78141 -95.2592
11.6401 3.77075 -94.9908
11.4439 3.76016 -94.724
11.2488 3.74963 -94.4586
11.0548 3.73914 -94.1948
10.8619 3.72873 -93.9323
10.6701 3.71837 -93.6714
10.4793 3.70807 -93.4119
10.2896 3.69783 -93.1538
10.1009 3.68764 -92.8972
9.91328 3.6775 -92.642
9.72666 3.66743 -92.3881
9.54107 3.6574 -92.1357
9.35649 3.64743 -91.8846
9.1729 3.63752 -91.6349
8.99032 3.62766 -91.3866
8.80873 3.61786 -91.1395
8.62811 3.6081 -90.8939
8.44846 3.5984 -90.6495
8.26978 3.58875 -90.4065
8.09206 3.57915 -90.1647
7.91528 3.56961 -89.9243
7.73944 3.56012 -89.6851
7.56452 3.55067 -89.4472
7.39054 3.54127 -89.2105
7.21749 3.53193 -88.9751
7.04533 3.52262 -88.741
6.87408 3.51338 -88.508
6.70373 3.50418 -88.2763
6.53427 3.49503 -88.0458
6.3657 3.48593 -87.8165
6.198 3.47688 -87.5884
6.03115 3.46786 -87.3615
5.86518 3.4589 -87.1357
5.70006 3.44999 -86.9111
5.5358 3.44112 -86.6877
5.37238 3.43229 -86.4654
5.20979 3.42351 -86.2442
5.04802 3.41478 -86.0242
4.88708 3.40609 -85.8053
4.72697 3.39744 -85.5875
4.56766 3.38884 -85.3708
4.40916 3.38028 -85.1552
4.25145 3.37176 -84.9407
4.09454 3.36329 -84.7272
3.93842 3.35486 -84.5149
3.78307 3.34647 -84.3036
3.6285 3.33812 -84.0934
3.47471 3.32981 -83.8841
3.32166 3.32155 -83.676
3.16938 3.31332 -83.4688
3.01786 3.30515 -83.2627
2.86707 3.297 -83.0576
2.71703 3.2889 -82.8536
2.56773 3.28084 -82.6505
2.41914 3.27282 -82.4484
2.27129 3.26483 -82.2473
2.12416 3.25689 -82.0471
1.97809 3.24945 -81.8597
1.83289 3.24271 -81.6901
1.68893 3.2368 -81.541
1.54578 3.23161 -81.4108
1.40305 3.2267 -81.2872
1.2611 3.22236 -81.18
1.11972 3.21825 -81.0778
0.978561 3.21487 -80.9871
0.837753 3.2116 -80.9018
0.697525 3.20847 -80.8264
0.557579 3.20556 -80.7563
0.417877 3.20314 -80.6956
0.278458 3.20097 -80.6406
0.139252 3.19927 -80.5951
0.000190735 3.19781 -80.5566
-0.138725 3.19648 -80.5272
-0.277679 3.19574 -80.5089
-0.416786 3.19556 -80.4984
-0.555733 3.19553 -80.4974
-0.694656 3.19553 -80.4974
-0.833588 3.19553 -80.4974
-0.972527 3.19553 -80.4974
-1.11146 3.19553 -80.4974
-1.25039 3.19553 -80.4974
-1.38932 3.19552 -80.4974
-1.52825 3.19553 -80.4974
-1.66718 3.19552 -80.4974
-1.80611 3.19553 -80.4974
-1.94505 3.19552 -80.4974
-2.08398 3.19552 -80.4974
-2.22292 3.19551 -80.4974
-2.36184 3.19552 -80.4974
-2.50077 3.19551 -80.4974
-2.63969 3.19551 -80.4974
-2.77863 3.19551 -80.4974
-2.91756 3.19551 -80.4974
-3.0565 3.19551 -80.4974
-3.19543 3.19551 -80.4974
-3.33436 3.19551 -80.4974
-3.47328 3.1955 -80.4974
-3.61221 3.1955 -80.4974
-3.75116 3.1955 -80.4974
-3.89009 3.1955 -80.4974
-4.02902 3.19551 -80.4977
-4.16847 3.19577 -80.5083
-4.30836 3.19634 -80.5255
-4.44902 3.19769 -80.5554
-4.59025 3.19933 -80.594
-4.73208 3.20107 -80.6404
-4.87463 3.20322 -80.6965
-5.01778 3.20571 -80.7587
-5.16171 3.20864 -80.8315
-5.30617 3.21186 -80.9092
-5.45193 3.21541 -80.9991
-5.59821 3.21891 -81.0931
-5.74581 3.22334 -81.2027
-5.89429 3.22796 -81.3171
-6.04469 3.23318 -81.4499
-6.19632 3.23895 -81.5956
-6.34945 3.24535 -81.757
-6.50594 3.25296 -81.9501
-6.66473 3.26144 -82.164
-6.82455 3.27007 -82.3814
-6.98522 3.27874 -82.6
-7.14674 3.28746 -82.8197
-7.30912 3.29623 -83.0405
-7.47237 3.30504 -83.2626
-7.63649 3.3139 -83.4858
-7.80149 3.32281 -83.7103
-7.9674 3.33177 -83.936
-8.13419 3.34077 -84.1628
-8.30188 3.34982 -84.3909
-8.4705 3.35892 -84.6203
-8.64002 3.36808 -84.8509
-8.81048 3.37729 -85.0827
-8.98186 3.38653 -85.3159
-9.15419 3.39583 -85.5503
-9.32748 3.40519 -85.786
-9.5017 3.41459 -86.023
-9.67691 3.42405 -86.2613
-9.85309 3.43357 -86.5009
-10.0302 3.44313 -86.7419
-10.2084 3.45275 -86.9842
-10.3875 3.46241 -87.2279
-10.5677 3.47215 -87.473
-10.7488 3.48192 -87.7194
-10.931 3.49176 -87.9672
-11.1143 3.50165 -88.2164
-11.2985 3.5116 -88.4671
-11.4838 3.5216 -88.7191
-11.6702 3.53166 -88.9726
-11.8577 3.54178 -89.2276
-12.0462 3.55196 -89.484
-12.2358 3.56219 -89.7419
-12.4265 3.57249 -90.0013
-12.6183 3.58284 -90.2622
-12.8112 3.59325 -90.5247
-13.0053 3.60373 -90.7886
-13.2004 3.61427 -91.0541
-13.3968 3.62487 -91.3212
-13.5943 3.63553 -91.5898
-13.7929 3.64625 -91.86
-13.9927 3.65705 -92.1318
-14.2104 3.67265 -92.5135
14.0554 4.0643 -98.1176
13.8449 4.05221 -97.8275
13.6365 4.04049 -97.5445
13.4293 4.02883 -97.2631
13.2233 4.01724 -96.9834
13.0185 4.00571 -96.7052
12.8148 3.99426 -96.4286
12.6124 3.98287 -96.1537
12.411 3.97154 -95.8803
12.2108 3.96028 -95.6084
12.0117 3.94909 -95.3381
11.8138 3.93795 -95.0693
11.617 3.92687 -94.802
11.4212 3.91587 -94.5362
11.2266 3.90491 -94.2719
11.0331 3.89403 -94.0091
10.8406 3.8832 -93.7477
10.6492 3.87243 -93.4877
10.4588 3.86172 -93.2293
10.2695 3.85107 -92.9722
10.0813 3.84048 -92.7166
9.89406 3.82996 -92.4623
9.70786 3.81948 -92.2095
9.52267 3.80906 -91.958
9.33849 3.7987 -91.7079
9.15531 3.78839 -91.4592
8.97313 3.77815 -91.2118
8.79192 3.76795 -90.9657
8.61169 3.75782 -90.7209
8.43243 3.74773 -90.4775
8.25413 3.73769 -90.2354
8.07678 3.72772 -89.9946
7.90038 3.7178 -89.755
7.72491 3.70793 -89.5167
7.55036 3.69811 -89.2797
7.37674 3.68834 -89.0439
7.20404 3.67862 -88.8094
7.03225 3.66896 -88.5761
6.86134 3.65935 -88.3441
6.69134 3.64978 -88.1132
6.52222 3.64027 -87.8835
6.35398 3.63081 -87.6551
6.18663 3.6214 -87.4278
6.02013 3.61202 -87.2017
5.85448 3.60271 -86.9768
5.6897 3.59344 -86.753
5.52575 3.58422 -86.5304
5.36265 3.57504 -86.3089
5.20039 3.56591 -86.0885
5.03894 3.55683 -85.8693
4.87832 3.54779 -85.6512
4.71851 3.5388 -85.4342
4.55949 3.52985 -85.2182
4.4013 3.52096 -85.0034
4.2439 3.5121 -84.7897
4.08728 3.50329 -84.577
3.93144 3.49453 -84.3654
3.7764 3.48581 -84.1548
3.62211 3.47712 -83.9453
3.4686 3.46849 -83.7368
3.31584 3.4599 -83.5294
3.16385 3.45135 -83.323
3.0126 3.44284 -83.1176
2.86209 3.43437 -82.9132
2.71232 3.42594 -82.7098
2.56327 3.41755 -82.5075
2.41498 3.40922 -82.3061
2.26743 3.40097 -82.1068
2.12109 3.39352 -81.9265
1.97586 3.38701 -81.7699
1.83166 3.38107 -81.6267
1.68811 3.37581 -81.5001
1.54514 3.371 -81.3846
1.40291 3.36644 -81.2771
1.26123 3.3626 -81.182
1.11973 3.35905 -81.091
0.978729 3.35575 -81.0125
0.838196 3.35249 -80.9368
0.697952 3.34978 -80.8734
0.557938 3.34723 -80.8125
0.418297 3.34533 -80.7644
0.278793 3.34354 -80.7187
0.139473 3.34221 -80.6877
0.000274658 3.34086 -80.6594
-0.139076 3.34059 -80.6488
-0.278366 3.34047 -80.6423
-0.417557 3.34046 -80.6423
-0.556732 3.34046 -80.6423
-0.695908 3.34046 -80.6423
-0.835091 3.34046 -80.6423
-0.974266 3.34046 -80.6423
-1.11346 3.34046 -80.6423
-1.25264 3.34045 -80.6423
-1.39182 3.34045 -80.6423
-1.53101 3.34045 -80.6423
-1.67019 3.34045 -80.6423
-1.80936 3.34045 -80.6423
-1.94855 3.34045 -80.6423
-2.08773 3.34045 -80.6423
-2.22691 3.34044 -80.6423
-2.36609 3.34045 -80.6423
-2.50527 3.34044 -80.6423
-2.64445 3.34044 -80.6423
-2.78363 3.34044 -80.6423
-2.92281 3.34044 -80.6423
-3.06199 3.34044 -80.6423
-3.20118 3.34043 -80.6423
-3.34036 3.34044 -80.6423
-3.47954 3.34044 -80.6423
-3.61873 3.34044 -80.6423
-3.7579 3.34043 -80.6423
-3.89709 3.34043 -80.6423
-4.03626 3.34042 -80.6423
-4.17545 3.34042 -80.6423
-4.31493 3.34064 -80.6488
-4.45469 3.34085 -80.6594
-4.59557 3.34214 -80.688
-4.73674 3.34362 -80.7198
-4.87886 3.34552 -80.7664
-5.02135 3.34748 -80.8163
-5.1648 3.35006 -80.8787
-5.30873 3.35283 -80.9454
-5.45355 3.35617 -81.0233
-5.59916 3.35973 -81.107
-5.74584 3.36345 -81.2013
-5.89331 3.36764 -81.3041
-6.04198 3.37241 -81.4164
-6.19232 3.37765 -81.5438
-6.3438 3.3833 -81.6802
-6.49713 3.38985 -81.8388
-6.6532 3.39739 -82.022
-6.8118 3.40588 -82.2276
-6.97215 3.4149 -82.4453
-7.13333 3.42397 -82.6642
-7.29537 3.43308 -82.8843
-7.45827 3.44224 -83.1055
-7.62205 3.45145 -83.3279
-7.78669 3.46071 -83.5515
-7.95225 3.47002 -83.7763
-8.11867 3.47938 -84.0023
-8.28601 3.48878 -84.2295
-8.45425 3.49825 -84.458
-8.62341 3.50776 -84.6877
-8.79349 3.51733 -84.9187
-8.96449 3.52694 -85.1509
-9.13645 3.53662 -85.3844
-9.30933 3.54634 -85.6192
-9.48318 3.55612 -85.8553
-9.658 3.56595 -86.0926
-9.83376 3.57583 -86.3313
-10.0105 3.58577 -86.5714
-10.1883 3.59577 -86.8127
-10.367 3.60582 -87.0555
-10.5467 3.61593 -87.2995
-10.7275 3.6261 -87.545
-10.9092 3.63631 -87.7918
-11.092 3.64659 -88.04
-11.2759 3.65694 -88.2897
-11.4608 3.66733 -88.5408
-11.6467 3.67779 -88.7933
-11.8337 3.6883 -89.0472
-12.0217 3.69889 -89.3026
-12.2109 3.70952 -89.5594
-12.4011 3.72022 -89.8178
-12.5925 3.73097 -90.0776
-12.7849 3.7418 -90.339
-12.9785 3.75269 -90.6018
-13.1732 3.76364 -90.8662
-13.369 3.77465 -91.1322
-13.566 3.78573 -91.3997
-13.7642 3.79687 -91.6688
-13.9635 3.80808 -91.9394
-14.1747 3.82258 -92.2811
14.2701 4.24722 -98.4317
14.0257 4.22465 -97.9107
13.8166 4.21241 -97.6272
13.6087 4.20025 -97.3453
13.402 4.18816 -97.0651
13.1965 4.17613 -96.7865
12.9922 4.16418 -96.5095
12.789 4.1523 -96.2341
12.587 4.14047 -95.9602
12.3861 4.12872 -95.6879
12.1864 4.11704 -95.4171
11.9878 4.10542 -95.1478
11.7903 4.09387 -94.8801
11.5939 4.08239 -94.6139
11.3986 4.07095 -94.3491
11.2045 4.0596 -94.0859
11.0114 4.04829 -93.8241
10.8193 4.03706 -93.5638
10.6283 4.02589 -93.3048
10.4384 4.01478 -93.0474
10.2495 4.00373 -92.7913
10.0617 3.99274 -92.5367
9.87491 3.98182 -92.2834
9.68912 3.97094 -92.0315
9.50434 3.96013 -91.781
9.32057 3.94938 -91.5319
9.13779 3.93869 -91.2841
8.956 3.92805 -91.0376
8.77518 3.91748 -90.7925
8.59534 3.90696 -90.5487
8.41646 3.89649 -90.3062
8.23855 3.88608 -90.065
8.06157 3.87573 -89.825
7.88553 3.86543 -89.5864
7.71043 3.85519 -89.349
7.53625 3.845 -89.1129
7.36299 3.83487 -88.878
7.19064 3.82478 -88.6443
7.0192 3.81475 -88.4119
6.84866 3.80478 -88.1807
6.679 3.79485 -87.9507
6.51022 3.78498 -87.7219
6.34234 3.77515 -87.4942
6.17529 3.76539 -87.2678
6.00914 3.75566 -87.0425
5.84383 3.74599 -86.8184
5.67937 3.73637 -86.5955
5.51575 3.7268 -86.3736
5.35295 3.71727 -86.1529
5.191 3.70779 -85.9334
5.02988 3.69838 -85.7149
4.86957 3.68899 -85.4976
4.71007 3.67966 -85.2814
4.55137 3.67038 -85.0662
4.39346 3.66114 -84.8521
4.23637 3.65195 -84.6392
4.08005 3.64281 -84.4272
3.92451 3.6337 -84.2164
3.76974 3.62465 -84.0066
3.61575 3.61564 -83.7978
3.46251 3.60668 -83.5901
3.31004 3.59776 -83.3833
3.15833 3.58889 -83.1777
3.00735 3.58005 -82.973
2.85712 3.57126 -82.7693
2.70762 3.56252 -82.5666
2.55886 3.55381 -82.365
2.41115 3.54558 -82.174
2.26445 3.53808 -82.0001
2.11908 3.53159 -81.8498
1.9747 3.52581 -81.7165
1.83075 3.52036 -81.5903
1.68766 3.51563 -81.4822
1.54517 3.51106 -81.3779
1.40309 3.50732 -81.2865
1.26128 3.5037 -81.1995
1.1201 3.50029 -81.1235
0.979263 3.49708 -81.0519
0.838745 3.49441 -80.9907
0.698524 3.49199 -80.9344
0.558571 3.49012 -80.8885
0.418793 3.4885 -80.8489
0.279221 3.48705 -80.8192
0.139679 3.48618 -80.7998
3.8147e-005 3.48595 -80.7892
-0.139427 3.48592 -80.7878
-0.278862 3.48592 -80.7878
-0.418289 3.48591 -80.7878
-0.557732 3.48591 -80.7878
-0.697159 3.48591 -80.7878
-0.836594 3.48591 -80.7878
-0.976028 3.48592 -80.7878
-1.11546 3.4859 -80.7878
-1.2549 3.4859 -80.7878
-1.39433 3.4859 -80.7878
-1.53376 3.4859 -80.7878
-1.67319 3.4859 -80.7878
-1.81262 3.4859 -80.7878
-1.95206 3.4859 -80.7878
-2.09148 3.4859 -80.7878
-2.23093 3.4859 -80.7878
-2.37035 3.4859 -80.7878
-2.50979 3.48589 -80.7878
-2.64922 3.48589 -80.7878
-2.78865 3.48589 -80.7878
-2.92808 3.48589 -80.7878
-3.06751 3.48589 -80.7878
-3.20695 3.48589 -80.7878
-3.34638 3.48589 -80.7878
-3.48582 3.48589 -80.7878
-3.62524 3.48589 -80.7878
-3.76468 3.48589 -80.7878
-3.90411 3.48588 -80.7878
-4.04354 3.48588 -80.7878
-4.18298 3.48588 -80.7878
-4.32241 3.48588 -80.7878
-4.46192 3.48597 -80.7898
-4.60194 3.48624 -80.8005
-4.74264 3.48706 -80.821
-4.88396 3.48853 -80.8511
-5.02612 3.49042 -80.8928
-5.1687 3.49233 -80.9395
-5.31227 3.49482 -80.999
-5.45629 3.49755 -81.0616
-5.60134 3.50088 -81.1377
-5.74677 3.50439 -81.216
-5.89386 3.50837 -81.3097
-6.04129 3.51231 -81.4059
-6.19023 3.51728 -81.5184
-6.34029 3.52247 -81.6379
-6.492 3.52823 -81.7717
-6.64538 3.53476 -81.9239
-6.80071 3.54208 -82.094
-6.95911 3.55054 -82.2913
-7.11996 3.55996 -82.5093
-7.28165 3.56941 -82.7285
-7.44422 3.57892 -82.9489
-7.60764 3.58847 -83.1705
-7.77195 3.59808 -83.3932
-7.93714 3.60775 -83.6172
-8.10322 3.61746 -83.8424
-8.27019 3.62722 -84.0687
-8.43806 3.63704 -84.2963
-8.60685 3.64692 -84.5251
-8.77657 3.65684 -84.7552
-8.94719 3.66682 -84.9865
-9.11875 3.67685 -85.2191
-9.29128 3.68694 -85.453
-9.46473 3.69709 -85.6882
-9.63914 3.70728 -85.9247
-9.81453 3.71754 -86.1624
-9.99089 3.72786 -86.4015
-10.1682 3.73823 -86.6419
-10.3465 3.74866 -86.8837
-10.5259 3.75914 -87.1268
-10.7062 3.76969 -87.3713
-10.8875 3.7803 -87.6171
-11.0699 3.79097 -87.8644
-11.2533 3.80169 -88.113
-11.4378 3.81248 -88.3631
-11.6232 3.82333 -88.6146
-11.8098 3.83424 -88.8675
-11.9974 3.84521 -89.1218
-12.1861 3.85625 -89.3777
-12.3759 3.86735 -89.6349
-12.5668 3.87851 -89.8937
-12.7588 3.88974 -90.154
-12.9519 3.90103 -90.4158
-13.1461 3.91239 -90.6791
